ply
format ascii 1.0
comment PCL generated
element vertex 1514
property float x
property float y
property float z
element camera 0
property float view_px
property float view_py
property float view_pz
property float x_axisx
property float x_axisy
property float x_axisz
property float y_axisx
property float y_axisy
property float y_axisz
property float z_axisx
property float z_axisy
property float z_axisz
property float focal
property float scalex
property float scaley
property float centerx
property float centery
property int viewportx
property int viewporty
property float k1
property float k2
element face 0
property list uchar int vertex_indices
end_header
1.0527264 -2.3644621 2.1071095
1.0523343 -2.3635817 2.078114
1.0519421 -2.3627007 2.0491035
1.0515497 -2.3618193 2.0200777
1.0269246 -2.3065104 1.9667727
1.0265245 -2.3056118 1.9376396
1.0261241 -2.3047125 1.9084911
1.0013511 -2.2490714 1.8547134
1.0009429 -2.2481546 1.8254567
1.0005345 -2.2472372 1.7961845
1.0001259 -2.2463193 1.766897
0.999717 -2.2454011 1.7375939
1.0237174 -2.2993069 1.7332773
1.0476141 -2.3529799 1.7289793
1.0714078 -2.4064212 1.7247
1.0468245 -2.3512063 1.6705757
1.0464294 -2.3503189 1.6413507
1.021706 -2.2947893 1.5868416
1.0213031 -2.2938843 1.557508
0.99643826 -2.2380371 1.5026101
0.94672924 -2.1263888 1.4215357
0.92146456 -2.0696433 1.365833
0.89606172 -2.0125875 1.3098258
0.89561963 -2.0115945 1.280017
0.8700695 -1.954208 1.223606
0.84437889 -1.896506 1.1668848
0.76741874 -1.7236508 1.0554165
0.74117148 -1.6646985 0.99762863
0.6887455 -1.5469477 0.91165197
0.68823701 -1.5458057 0.88108438
0.66154736 -1.4858596 0.82232255
0.60825187 -1.366156 0.73468035
0.58111751 -1.3052113 0.67502338
0.49992934 -1.1228597 0.5565486
-0.38641909 0.82867843 6.7430329
-0.35596627 0.76337212 6.7265649
-0.35682711 0.76521826 6.6962037
-0.35768846 0.76706541 6.6658244
-0.32735723 0.70201987 6.6495671
-0.29716814 0.63727915 6.6333857
0.0030179571 -0.0064720297 6.7119675
0.0022820979 -0.0048939749 6.6824851
0.03090384 -0.066273503 6.666666
0.030177204 -0.064715222 6.6372299
0.058678284 -0.12583598 6.6215458
0.057960801 -0.12429734 6.5921559
0.086341955 -0.18516092 6.5766053
0.11459451 -0.24574873 6.5611248
0.14271933 -0.30606261 6.5457144
0.17071728 -0.36610439 6.5303736
0.19858924 -0.42587596 6.5151019
0.226336 -0.48537913 6.4998984
0.25395846 -0.54461569 6.4847631
0.33734015 -0.72342831 6.4973006
0.36445615 -0.78157872 6.4823136
0.39145204 -0.83947164 6.4673929
0.41832867 -0.89710873 6.4525385
0.41772881 -0.89582235 6.4239559
0.47172719 -1.0116222 6.4230256
0.47114429 -1.0103722 6.3945608
0.49767613 -1.0672699 6.3799596
0.49710131 -1.0660372 6.3515382
0.52352524 -1.1227034 6.33706
0.5229584 -1.1214879 6.3086815
0.52239126 -1.1202717 6.2802882
0.54871613 -1.1767256 6.2659893
0.57492608 -1.2329329 6.2517533
0.57437515 -1.2317514 6.2234612
0.60047901 -1.2877314 6.2093449
0.59993589 -1.2865666 6.1810956
0.62593436 -1.3423206 6.167098
0.62539899 -1.3411726 6.1388917
0.62486339 -1.3400239 6.1106701
0.67707419 -1.4519902 6.1111941
0.6765545 -1.4508758 6.0830874
0.70223248 -1.5059423 6.0693855
0.70172042 -1.5048443 6.0413213
0.70120811 -1.5037456 6.0132422
0.70069551 -1.5026463 5.9851484
0.72628617 -1.5575258 5.9716768
0.75176662 -1.6121688 5.9582629
0.7512694 -1.6111023 5.9302683
0.75077188 -1.6100354 5.9022593
0.77615821 -1.6644766 5.8890166
0.7756682 -1.6634258 5.8610492
0.80095327 -1.7176498 5.8479199
0.80047059 -1.7166147 5.8199949
0.82565498 -1.7706228 5.8069782
0.85073167 -1.8243999 5.7940173
0.85026395 -1.8233969 5.7661901
0.8752411 -1.8769606 5.7533407
0.87478065 -1.8759731 5.7255549
0.89965892 -1.9293247 5.7128162
0.89920563 -1.9283527 5.6850719
0.92398554 -1.9814934 5.6724429
0.9235394 -1.9805366 5.6447401
0.89784437 -1.9254335 5.6017537
0.89739013 -1.9244593 5.5739517
0.8969357 -1.9234848 5.5461359
0.92175257 -1.9767047 5.5337858
0.97150314 -2.0833952 5.5368919
0.97107071 -2.0824678 5.509243
0.97063804 -2.0815401 5.4815798
0.97020519 -2.0806117 5.4539022
0.96977204 -2.0796828 5.4262109
0.96933872 -2.0787537 5.3985047
0.94382089 -2.0240304 5.3549604
0.96847141 -2.0768936 5.3430495
0.96803743 -2.075963 5.3153005
0.96760315 -2.0750318 5.2875371
0.99216378 -2.127702 5.2757883
0.99173659 -2.126786 5.2480664
0.99130917 -2.1258693 5.2203302
0.99088156 -2.1249523 5.1925793
1.0153599 -2.1774461 5.1810474
1.0149392 -2.1765442 5.1533384
1.0145184 -2.1756418 5.1256146
1.0140973 -2.1747386 5.097877
1.0384938 -2.227057 5.0865607
1.0380796 -2.2261689 5.0588641
1.0376654 -2.2252805 5.0311537
1.0619731 -2.2774086 5.0199962
1.0615656 -2.276535 4.9923267
1.0611581 -2.2756608 4.9646435
1.0607502 -2.2747862 4.9369459
1.0849768 -2.3267403 4.9260015
1.0845759 -2.3258805 4.8983455
1.0841748 -2.3250201 4.8706746
1.0837734 -2.3241594 4.8429899
1.0833718 -2.3232982 4.8152909
1.1075246 -2.3750942 4.8046145
1.1071298 -2.3742476 4.776957
1.1067349 -2.3734007 4.7492852
1.1063398 -2.3725533 4.7215991
1.1059444 -2.3717055 4.6938992
1.1055489 -2.3708572 4.6661844
1.1296352 -2.4225106 4.6558309
1.1292465 -2.4216769 4.6281576
1.1288575 -2.4208429 4.6004705
1.1284684 -2.4200082 4.5727692
1.1280791 -2.4191732 4.5450535
1.1276895 -2.4183381 4.5173235
1.1517096 -2.4698491 4.5072913
1.1513268 -2.4690282 4.4796028
1.1509438 -2.4682069 4.4519005
1.1505606 -2.4673853 4.4241834
1.1501772 -2.466563 4.3964524
1.1497937 -2.4657407 4.3687077
1.14941 -2.4649177 4.3409481
1.149026 -2.4640942 4.3131742
1.1729938 -2.5154932 4.3035741
1.1726166 -2.5146842 4.2758422
1.1722392 -2.513875 4.248096
1.1718615 -2.5130653 4.2203355
1.1714838 -2.5122552 4.1925611
1.1711059 -2.5114446 4.164772
1.1707276 -2.5106335 4.1369691
1.1946363 -2.5619059 4.1277442
1.1942649 -2.5611093 4.0999827
1.1938932 -2.5603123 4.0722075
1.1935214 -2.5595148 4.0444179
1.1931493 -2.558717 4.016614
1.1927772 -2.5579188 3.9887955
1.1924047 -2.5571203 3.9609632
1.1920321 -2.5563211 3.9331164
1.1916593 -2.5555217 3.9052556
1.1912864 -2.5547218 3.8773801
1.1909132 -2.5539217 3.8494906
1.1905398 -2.5531211 3.8215868
1.1901664 -2.55232 3.7936685
1.1897926 -2.5515184 3.7657361
1.2136905 -2.6027677 3.7572803
1.2133235 -2.6019804 3.7293899
1.2129562 -2.601193 3.7014854
1.2125888 -2.6004052 3.6735666
1.2122213 -2.5996168 3.6456332
1.2118535 -2.5988281 3.6176858
1.2114855 -2.5980392 3.5897238
1.2111174 -2.5972495 3.5617478
1.210749 -2.5964596 3.5337572
1.2103804 -2.5956693 3.5057521
1.2100117 -2.5948787 3.4777329
1.2096429 -2.5940874 3.4496992
1.2092738 -2.5932961 3.4216509
1.2089045 -2.592504 3.3935883
1.208535 -2.5917118 3.3655114
1.2081653 -2.5909188 3.33742
1.2077955 -2.5901258 3.309314
1.2074254 -2.5893321 3.2811937
1.2070552 -2.5885382 3.2530589
1.2066847 -2.5877438 3.2249095
1.2063141 -2.5869489 3.1967459
1.2059433 -2.5861537 3.1685674
1.2055722 -2.5853581 3.1403747
1.2052011 -2.5845621 3.1121674
1.2048297 -2.5837657 3.0839455
1.2044581 -2.5829687 3.0557089
1.2040864 -2.5821714 3.027458
1.2037144 -2.5813739 2.9991925
1.2033422 -2.5805757 2.9709122
1.2029699 -2.5797772 2.9426174
1.2025974 -2.5789783 2.9143081
1.2022246 -2.5781791 2.8859842
1.2018517 -2.5773792 2.8576455
1.2014786 -2.5765791 2.8292923
1.2011052 -2.5757787 2.8009243
1.2007318 -2.5749776 2.7725418
1.2003582 -2.5741763 2.7441444
1.1754469 -2.5207539 2.6935682
1.1750655 -2.5199361 2.6650681
1.1746839 -2.5191178 2.636553
1.1743022 -2.5182993 2.6080232
1.1739203 -2.5174801 2.5794785
1.1735382 -2.5166607 2.5509191
1.1731559 -2.5158408 2.5223448
1.1727734 -2.5150206 2.4937556
1.1723906 -2.5141997 2.4651515
1.1472869 -2.4603646 2.413594
1.1468964 -2.4595273 2.3848855
1.1465057 -2.4586895 2.3561621
1.1461148 -2.4578512 2.3274238
1.1457237 -2.4570124 2.2986705
1.1453325 -2.4561734 2.2699022
1.0950522 -2.3483472 2.1940043
1.0946456 -2.3474751 2.1650546
1.0942386 -2.3466024 2.1360896
1.1188586 -2.3994 2.1309514
1.1184587 -2.3985426 2.1020322
1.1180588 -2.3976848 2.0730979
1.1425877 -2.4502871 2.0681031
1.1421947 -2.4494445 2.0392144
1.1418016 -2.4486012 2.0103106
1.1414082 -2.4477577 1.9813917
1.1410147 -2.4469137 1.9524575
1.1406209 -2.4460695 1.9235083
1.140227 -2.4452245 1.894544
1.1398327 -2.4443793 1.8655645
1.1394384 -2.4435334 1.8365698
1.1390438 -2.4426873 1.8075598
1.113645 -2.3882194 1.753817
1.1132425 -2.387356 1.7247
1.1128397 -2.3864925 1.6955677
1.0872887 -2.3316982 1.6413507
1.0616 -2.2766085 1.5868416
1.0357723 -2.2212207 1.5320375
0.98413825 -2.1104913 1.4511368
0.98369569 -2.1095421 1.4215357
1.008935 -2.1636679 1.417877
0.98280978 -2.1076424 1.3622861
0.95654213 -2.0513113 1.3063921
0.93013078 -1.9946719 1.2501923
0.82450521 -1.7681571 1.112885
0.77062201 -1.6526042 1.0279948
0.74320686 -1.5938122 0.96998537
0.74268752 -1.5926986 0.93951887
0.71511024 -1.5335588 0.88108438
0.68737841 -1.4740878 0.82232255
0.63200194 -1.3553325 0.73468035
0.6038081 -1.2948706 0.67502338
0.54752392 -1.1741688 0.58586347
-0.43255994 0.88687932 6.7595792
-0.40082267 0.82180828 6.7430329
-0.40172678 0.82366198 6.7126045
-0.37012768 0.75887418 6.6962037
-0.37102112 0.76070601 6.6658244
-0.33955932 0.69619977 6.6495671
-0.30824494 0.6319958 6.6333857
0.0031304499 -0.0064183734 6.7119675
0.0023671619 -0.0048534013 6.6824851
0.032055765 -0.06572406 6.666666
0.031302042 -0.064178698 6.6372299
0.060865488 -0.12479275 6.6215458
0.060121261 -0.12326685 6.5921559
0.11959061 -0.24519709 6.5903897
0.1487541 -0.3049911 6.5749173
0.14803912 -0.30352518 6.5457144
0.20668742 -0.42377201 6.5441818
0.20599154 -0.42234525 6.5151019
0.23477258 -0.4813551 6.4998984
0.26342463 -0.54010057 6.4847631
0.34991434 -0.71743071 6.4973006
0.37804106 -0.77509904 6.4823136
0.40604323 -0.83251196 6.4673929
0.43392166 -0.88967127 6.4525385
0.43329945 -0.88839555 6.4239559
0.48931056 -1.0032353 6.4230256
0.48870596 -1.0019957 6.3945608
0.51622677 -1.0584217 6.3799596
0.51563048 -1.0571992 6.3515382
0.54303938 -1.1133957 6.33706
0.54245144 -1.1121902 6.3086815
0.54186314 -1.1109841 6.2802882
0.56916928 -1.1669699 6.2659893
0.59635615 -1.2227113 6.2517533
0.59578466 -1.2215396 6.2234612
0.62286156 -1.2770555 6.2093449
0.62229818 -1.2759004 6.1810956
0.64926577 -1.331192 6.167098
0.64871043 -1.3300536 6.1388917
0.70285052 -1.4410571 6.1392856
0.7294693 -1.4956336 6.1254697
0.7289387 -1.4945458 6.097435
0.72840786 -1.4934573 6.0693855
0.72787666 -1.4923683 6.0413213
0.72734529 -1.4912788 6.0132422
0.72681355 -1.4901887 5.9851484
0.75335813 -1.5446131 5.9716768
0.77978837 -1.598803 5.9582629
0.77927256 -1.5977455 5.9302683
0.7787565 -1.5966874 5.9022593
0.80508912 -1.6506773 5.8890166
0.80458081 -1.6496352 5.8610492
0.8308084 -1.7034096 5.8479199
0.83030772 -1.7023832 5.8199949
0.85643083 -1.7559434 5.8069782
0.85593784 -1.7549326 5.7790952
0.88195711 -1.80828 5.7661901
0.88147169 -1.8072847 5.7383485
0.90738767 -1.8604203 5.7255549
0.93319327 -1.9133297 5.7128162
0.93272305 -1.9123657 5.6850719
0.95842665 -1.9650658 5.6724429
0.95796388 -1.9641171 5.6447401
0.93131107 -1.9094707 5.6017537
0.9308399 -1.9085046 5.5739517
0.95657414 -1.9612676 5.5615458
1.0081637 -2.0670421 5.5645266
1.0077155 -2.0661228 5.5368919
1.0072669 -2.0652032 5.509243
1.0068181 -2.0642829 5.4815798
1.0063691 -2.0633624 5.4539022
1.0318 -2.1155035 5.4418197
1.0313582 -2.1145978 5.4141836
1.0309163 -2.1136916 5.3865333
1.0045707 -2.0596752 5.3430495
1.0041205 -2.0587521 5.3153005
1.0036701 -2.0578287 5.2875371
1.0291462 -2.1100624 5.2757883
1.0287031 -2.1091537 5.2480664
1.0282598 -2.1082449 5.2203302
1.0278162 -2.1073353 5.1925793
1.0532069 -2.159394 5.1810474
1.0527706 -2.1584995 5.1533384
1.0523341 -2.1576045 5.1256146
1.0518973 -2.156709 5.097877
1.077203 -2.2085936 5.0865607
1.0767735 -2.2077129 5.0588641
1.0763438 -2.2068317 5.0311537
1.1015576 -2.2585278 5.0199962
1.101135 -2.2576613 4.9923267
1.1007122 -2.2567945 4.9646435
1.1002891 -2.2559271 4.9369459
1.1254188 -2.3074505 4.9260015
1.1250029 -2.3065977 4.8983455
1.1245868 -2.3057446 4.8706746
1.1241704 -2.3048911 4.8429899
1.1237539 -2.3040369 4.8152909
1.148807 -2.3554034 4.8046145
1.1483976 -2.354564 4.776957
1.147988 -2.353724 4.7492852
1.147578 -2.3528836 4.7215991
1.1471679 -2.3520429 4.6938992
1.1467577 -2.3512018 4.6661844
1.1463472 -2.3503599 4.6384559
1.1713386 -2.4015999 4.6281576
1.1709352 -2.4007728 4.6004705
1.1705315 -2.3999453 4.5727692
1.1701276 -2.3991172 4.5450535
1.1697236 -2.3982887 4.5173235
1.194639 -2.4493728 4.5072913
1.1942419 -2.4485588 4.4796028
1.1938447 -2.4477441 4.4519005
1.1934472 -2.4469295 4.4241834
1.1930496 -2.4461141 4.3964524
1.1926517 -2.4452984 4.3687077
1.1922536 -2.4444823 4.3409481
1.2171075 -2.4954402 4.3312917
1.2167165 -2.4946384 4.3035741
1.2163253 -2.4938364 4.2758422
1.2159338 -2.4930336 4.248096
1.2155421 -2.4922307 4.2203355
1.2151502 -2.4914272 4.1925611
1.2147582 -2.4906235 4.164772
1.214366 -2.489819 4.1369691
1.2391658 -2.5406663 4.1277442
1.2387805 -2.5398765 4.0999827
1.238395 -2.5390859 4.0722075
1.2380093 -2.5382953 4.0444179
1.2376235 -2.537504 4.016614
1.2372373 -2.5367124 3.9887955
1.236851 -2.5359204 3.9609632
1.2364645 -2.5351281 3.9331164
1.2360779 -2.5343351 3.9052556
1.235691 -2.5335419 3.8773801
1.2353039 -2.5327485 3.8494906
1.2349167 -2.5319543 3.8215868
1.2345291 -2.5311599 3.7936685
1.2341415 -2.530365 3.7657361
1.2337537 -2.5295699 3.7377892
1.2585495 -2.5804088 3.7293899
1.2581686 -2.579628 3.7014854
1.2577875 -2.5788465 3.6735666
1.2574062 -2.5780647 3.6456332
1.2570248 -2.5772827 3.6176858
1.2566431 -2.5764999 3.5897238
1.2562611 -2.575717 3.5617478
1.255879 -2.5749338 3.5337572
1.2554969 -2.5741498 3.5057521
1.2551143 -2.5733657 3.4777329
1.2547317 -2.5725813 3.4496992
1.2543489 -2.5717962 3.4216509
1.2539657 -2.5710108 3.3935883
1.2535825 -2.570225 3.3655114
1.2531991 -2.5694389 3.33742
1.2528155 -2.5686524 3.309314
1.2524316 -2.5678654 3.2811937
1.2520475 -2.5670779 3.2530589
1.2516633 -2.5662901 3.2249095
1.2512789 -2.5655019 3.1967459
1.2508942 -2.5647132 3.1685674
1.2505094 -2.5639243 3.1403747
1.2501243 -2.5631349 3.1121674
1.2497392 -2.562345 3.0839455
1.2493538 -2.5615547 3.0557089
1.2489681 -2.5607641 3.027458
1.2485822 -2.559973 2.9991925
1.2481962 -2.5591815 2.9709122
1.24781 -2.5583897 2.9426174
1.2474235 -2.5575974 2.9143081
1.2470369 -2.5568047 2.8859842
1.2466501 -2.5560117 2.8576455
1.2462631 -2.555218 2.8292923
1.2458758 -2.554424 2.8009243
1.2454885 -2.5536299 2.7725418
1.2451009 -2.552835 2.7441444
1.2192611 -2.4998555 2.6935682
1.2188655 -2.4990447 2.6650681
1.2184697 -2.4982331 2.636553
1.2180737 -2.4974213 2.6080232
1.2176776 -2.4966092 2.5794785
1.2172812 -2.4957964 2.5509191
1.2168846 -2.4949832 2.5223448
1.2164879 -2.4941697 2.4937556
1.2160909 -2.4933558 2.4651515
1.2156937 -2.4925416 2.4365327
1.1896464 -2.4391365 2.3848855
1.1892412 -2.4383056 2.3561621
1.1888357 -2.4374745 2.3274238
1.1884301 -2.4366426 2.2986705
1.1880242 -2.4358103 2.2699022
1.187618 -2.4349778 2.2411189
1.1613922 -2.3812068 2.1887445
1.160978 -2.3803575 2.1598554
1.1605635 -2.3795078 2.1309514
1.1601487 -2.3786573 2.1020322
1.1597339 -2.3778067 2.0730979
1.1593187 -2.3769557 2.0441482
1.1589034 -2.3761041 2.0151837
1.1584878 -2.375252 1.9862038
1.1839536 -2.4274647 1.9813917
1.1835455 -2.4266276 1.9524575
1.1831369 -2.4257903 1.9235083
1.1827283 -2.4249525 1.894544
1.1823195 -2.4241142 1.8655645
1.1819104 -2.4232755 1.8365698
1.1815012 -2.4224362 1.8075598
1.1551555 -2.3684199 1.753817
1.1547381 -2.3675637 1.7247
1.1543202 -2.3667073 1.6955677
1.1278169 -2.3123672 1.6413507
1.1011705 -2.2577343 1.5868416
1.0743802 -2.2028058 1.5320375
1.0739377 -2.2018986 1.5026101
1.0469936 -2.1466551 1.4474145
1.0465425 -2.1457303 1.417877
1.0194435 -2.090169 1.3622861
0.99219674 -2.0343049 1.3063921
0.93774033 -1.9226526 1.223606
0.8552382 -1.7534982 1.112885
0.82710582 -1.6958183 1.0554165
0.79881716 -1.6378179 0.99762863
0.77037084 -1.5794942 0.93951887
0.74176562 -1.5208448 0.88108438
0.71300012 -1.4618669 0.82232255
0.65555948 -1.3440961 0.73468035
0.62631476 -1.2841356 0.67502338
0.56793261 -1.1644343 0.58586347
-0.44797224 0.87919503 6.7595792
-0.41510415 0.81468779 6.7430329
-0.38239074 0.75048405 6.7265649
-0.38331547 0.75229901 6.6962037
-0.38424078 0.75411499 6.6658244
-0.35165796 0.69016761 6.6495671
-0.31922784 0.62651992 6.6333857
0.0032419893 -0.0063627623 6.7119675
0.002451505 -0.0048113493 6.6824851
0.033197928 -0.065154597 6.666666
0.03241735 -0.063622631 6.6372299
0.063034154 -0.12371149 6.6215458
0.062263407 -0.12219882 6.5921559
0.12385167 -0.2430726 6.5903897
0.15405427 -0.30234852 6.5749173
0.15331382 -0.3008953 6.5457144
0.18339016 -0.35992342 6.5303736
0.2133311 -0.41868588 6.5151019
0.24313761 -0.47718444 6.4998984
0.30304247 -0.59475434 6.4985933
0.36238194 -0.7112146 6.4973006
0.39151081 -0.76838326 6.4823136
0.42051071 -0.82529879 6.4673929
0.41985714 -0.82401603 6.4387512
0.4487381 -0.88069814 6.4239559
0.50674492 -0.9945429 6.4230256
0.50611877 -0.99331403 6.3945608
0.53462017 -1.0492511 6.3799596
0.53400266 -1.0480392 6.3515382
0.56238806 -1.1037488 6.33706
0.5617792 -1.1025537 6.3086815
0.56116998 -1.1013581 6.2802882
0.58944899 -1.1568588 6.2659893
0.61760461 -1.2121173 6.2517533
0.61701274 -1.2109556 6.2234612
0.6450544 -1.2659905 6.2093449
0.64447093 -1.2648455 6.1810956
0.64388722 -1.2636998 6.1528311
0.67182428 -1.3185294 6.1388917
0.72789341 -1.4285712 6.1392856
0.75546056 -1.4826748 6.1254697
0.78290892 -1.5365453 6.1117129
0.78236783 -1.5354832 6.083735
0.78182644 -1.5344208 6.0557427
0.80917335 -1.5880921 6.0421586
0.78074282 -1.5322942 5.9997134
0.80810642 -1.5859982 5.9862428
0.80757254 -1.5849503 5.9582629
0.80703837 -1.583902 5.9302683
0.83430094 -1.6374078 5.9169688
0.83377481 -1.6363752 5.8890166
0.86092865 -1.6896676 5.8758307
0.86041045 -1.6886506 5.8479199
0.85989195 -1.687633 5.8199949
0.88694584 -1.7407292 5.8069782
0.91388404 -1.7935984 5.7940173
0.91338158 -1.7926123 5.7661901
0.91287887 -1.7916257 5.7383485
0.93971825 -1.844301 5.7255549
0.93922335 -1.8433297 5.6977553
0.96595639 -1.8957962 5.6850719
0.96546924 -1.89484 5.6573138
0.96498179 -1.8938833 5.6295409
0.96449411 -1.8929262 5.6017537
1.045013 -2.0509534 5.6197529
1.0445491 -2.0500431 5.5921469
1.044085 -2.0491323 5.5645266
1.0436207 -2.0482211 5.5368919
1.0699345 -2.0998647 5.5246429
1.0694778 -2.0989683 5.4970493
1.0690207 -2.0980713 5.4694419
1.0685635 -2.0971739 5.4418197
1.0947893 -2.1486449 5.4297881
1.0676483 -2.0953777 5.3865333
1.040364 -2.0418293 5.3430495
1.0398978 -2.0409143 5.3153005
1.0394313 -2.0399988 5.2875371
1.0658151 -2.0917799 5.2757883
1.0653561 -2.0908792 5.2480664
1.0648971 -2.0899782 5.2203302
1.0644376 -2.0890765 5.1925793
1.0907331 -2.1406844 5.1810474
1.0902812 -2.1397974 5.1533384
1.0898292 -2.1389101 5.1256146
1.0893768 -2.1380224 5.097877
1.1155843 -2.1894574 5.0865607
1.1151395 -2.1885843 5.0588641
1.1146944 -2.187711 5.0311537
1.1408066 -2.2389588 5.0199962
1.1403689 -2.2381001 4.9923267
1.1399311 -2.2372406 4.9646435
1.139493 -2.2363808 4.9369459
1.1655179 -2.2874577 4.9260015
1.1650872 -2.2866125 4.8983455
1.1646563 -2.2857666 4.8706746
1.1642251 -2.2849205 4.8429899
1.1637938 -2.2840738 4.8152909
1.1897395 -2.3349953 4.8046145
1.1893154 -2.334163 4.776957
1.1888912 -2.3333304 4.7492852
1.1884668 -2.3324974 4.7215991
1.188042 -2.3316638 4.6938992
1.1876172 -2.3308299 4.6661844
1.1871921 -2.3299956 4.6384559
1.2130738 -2.3807914 4.6281576
1.212656 -2.3799715 4.6004705
1.2122381 -2.3791511 4.5727692
1.2118198 -2.3783302 4.5450535
1.2114013 -2.3775089 4.5173235
1.2372044 -2.4281504 4.5072913
1.2367933 -2.4273434 4.4796028
1.2363819 -2.4265361 4.4519005
1.2359703 -2.4257281 4.4241834
1.2355584 -2.4249198 4.3964524
1.2351464 -2.4241114 4.3687077
1.2347342 -2.4233022 4.3409481
1.2604736 -2.4738188 4.3312917
1.2600687 -2.4730239 4.3035741
1.2596635 -2.4722288 4.2758422
1.259258 -2.4714332 4.248096
1.2588524 -2.4706371 4.2203355
1.2584466 -2.4698405 4.1925611
1.2580405 -2.4690437 4.164772
1.2576343 -2.4682462 4.1369691
1.2833178 -2.5186529 4.1277442
1.2829187 -2.5178697 4.0999827
1.2825196 -2.5170863 4.0722075
1.2821201 -2.5163023 4.0444179
1.2817204 -2.515518 4.016614
1.2813206 -2.5147333 3.9887955
1.2809206 -2.5139482 3.9609632
1.2805203 -2.5131626 3.9331164
1.2801199 -2.5123768 3.9052556
1.2797192 -2.5115902 3.8773801
1.2793183 -2.5108037 3.8494906
1.2789173 -2.5100164 3.8215868
1.2785159 -2.5092289 3.7936685
1.3041805 -2.5595982 3.7851562
1.3037864 -2.558825 3.7572803
1.3033922 -2.5580511 3.7293899
1.3029977 -2.557277 3.7014854
1.302603 -2.5565023 3.6735666
1.3022082 -2.5557272 3.6456332
1.301813 -2.5549519 3.6176858
1.3014178 -2.5541761 3.5897238
1.3010223 -2.5534 3.5617478
1.3006266 -2.5526235 3.5337572
1.3002307 -2.5518465 3.5057521
1.2998346 -2.551069 3.4777329
1.2994384 -2.5502913 3.4496992
1.2990419 -2.5495131 3.4216509
1.2986451 -2.5487347 3.3935883
1.2982482 -2.5479555 3.3655114
1.2978511 -2.5471761 3.33742
1.2974538 -2.5463965 3.309314
1.2970563 -2.5456161 3.2811937
1.2966585 -2.5448356 3.2530589
1.2962606 -2.5440547 3.2249095
1.2958624 -2.5432732 3.1967459
1.2954642 -2.5424914 3.1685674
1.2950656 -2.5417094 3.1403747
1.2946669 -2.5409267 3.1121674
1.2942679 -2.5401437 3.0839455
1.2938688 -2.5393603 3.0557089
1.2934693 -2.5385766 3.027458
1.2930698 -2.5377924 2.9991925
1.29267 -2.5370078 2.9709122
1.2922701 -2.5362227 2.9426174
1.2918699 -2.5354373 2.9143081
1.2914695 -2.5346515 2.8859842
1.2910688 -2.5338652 2.8576455
1.290668 -2.5330787 2.8292923
1.290267 -2.5322917 2.8009243
1.2898657 -2.5315042 2.7725418
1.2631133 -2.4789994 2.7220538
1.2627039 -2.4781959 2.6935682
1.2622942 -2.477392 2.6650681
1.2618843 -2.4765875 2.636553
1.2614743 -2.4757826 2.6080232
1.2610641 -2.4749775 2.5794785
1.2606535 -2.4741719 2.5509191
1.2602428 -2.4733658 2.5223448
1.2598319 -2.4725592 2.4937556
1.2594208 -2.4717524 2.4651515
1.2590094 -2.4709451 2.4365327
1.232034 -2.4180028 2.3848855
1.2316144 -2.4171791 2.3561621
1.2311944 -2.4163551 2.3274238
1.2307743 -2.4155304 2.2986705
1.230354 -2.4147055 2.2699022
1.2299334 -2.4138801 2.2411189
1.2027731 -2.360575 2.1887445
1.2023441 -2.3597331 2.1598554
1.2019148 -2.3588905 2.1309514
1.2014854 -2.3580477 2.1020322
1.2544703 -2.4620368 2.1207411
1.2540565 -2.4612243 2.0919428
1.2536423 -2.4604115 2.0631297
1.2532279 -2.4595983 2.0343015
1.2528133 -2.4587848 2.0054584
1.2523986 -2.4579706 1.9766001
1.2519836 -2.4571562 1.9477267
1.2248695 -2.4039416 1.894544
1.2244461 -2.4031107 1.8655645
1.2240224 -2.4022791 1.8365698
1.2235985 -2.4014473 1.8075598
1.2231745 -2.400615 1.7785348
1.1958818 -2.3470502 1.7247
1.1954492 -2.3462012 1.6955677
1.1680015 -2.2923319 1.6413507
1.1404058 -2.2381723 1.5868416
1.139956 -2.2372897 1.557508
1.1122025 -2.1828203 1.5026101
1.0842985 -2.1280556 1.4474145
1.0838313 -2.1271386 1.417877
1.028034 -2.0176301 1.3361205
0.99967092 -1.9619647 1.280017
0.97115242 -1.9059939 1.223606
0.88571072 -1.7383052 1.112885
0.85657597 -1.6811249 1.0554165
0.82727933 -1.6236271 0.99762863
0.7978195 -1.5658089 0.93951887
0.76819503 -1.5076677 0.88108438
0.73840463 -1.4492006 0.82232255
0.67891735 -1.3324503 0.73468035
0.64863062 -1.2730093 0.67502338
0.58816826 -1.1543453 0.58586347
-0.49839059 0.93733639 6.7456403
-0.42925918 0.8073191 6.7430329
-0.43022746 0.80914015 6.7126045
-0.43119627 0.81096226 6.6821589
-0.39734337 0.74729419 6.6658244
-0.39830074 0.74909478 6.6354284
-0.3301135 0.62085319 6.6333857
0.003352541 -0.0063052126 6.7119675
0.0025351013 -0.0047678319 6.6824851
0.0017172062 -0.003229595 6.6529865
0.033522781 -0.063047178 6.6372299
0.065183617 -0.12259255 6.6215458
0.064386591 -0.12109356 6.5921559
0.12807502 -0.24087407 6.5903897
0.15930752 -0.29961386 6.5749173
0.15854181 -0.29817379 6.5457144
0.18964374 -0.35666803 6.5303736
0.2206057 -0.41489896 6.5151019
0.2514286 -0.47286844 6.4998984
0.31337622 -0.58937496 6.4985933
0.37473914 -0.70478183 6.4973006
0.40486133 -0.76143342 6.4823136
0.43485013 -0.81783414 6.4673929
0.43417424 -0.81656301 6.4387512
0.46404007 -0.8727324 6.4239559
0.49377415 -0.92865413 6.4092259
0.52337742 -0.98432976 6.3945608
0.52272958 -0.98311132 6.3660803
0.55221212 -1.0385599 6.3515382
0.5815655 -1.0937656 6.33706
0.58093584 -1.0925814 6.3086815
0.58030587 -1.0913966 6.2802882
0.60954922 -1.1463953 6.2659893
0.60892808 -1.1452271 6.237639
0.63805288 -1.2000029 6.2234612
0.6374405 -1.1988512 6.1951537
0.6664474 -1.2534052 6.1810956
0.69532818 -1.3077221 6.167098
0.6947335 -1.3066037 6.1388917
0.69413847 -1.3054845 6.1106701
0.72291172 -1.3595992 6.096849
0.78065354 -1.4681958 6.097435
0.78008503 -1.4671265 6.0693855
0.8084867 -1.5205424 6.0557427
0.8079266 -1.5194889 6.0277352
0.80736613 -1.5184349 5.9997134
0.80680543 -1.5173804 5.9716768
0.83511072 -1.5706149 5.9582629
0.83455837 -1.569576 5.9302683
0.86275059 -1.6225979 5.9169688
0.86220652 -1.6215746 5.8890166
0.86166215 -1.6205508 5.8610492
0.88975042 -1.6733772 5.8479199
0.88921428 -1.6723688 5.8199949
0.91719067 -1.7249848 5.8069782
0.91666269 -1.7239918 5.7790952
0.94452786 -1.7763987 5.7661901
0.94400805 -1.7754209 5.7383485
0.94348788 -1.7744427 5.7104926
0.97125083 -1.8266572 5.6977553
0.97073877 -1.8256941 5.6699409
0.97022647 -1.8247305 5.6421118
0.96971387 -1.8237665 5.6142688
1.0533454 -1.9810547 5.6322198
1.0806478 -2.032403 5.6197529
1.0801682 -2.0315008 5.5921469
1.1073632 -2.0826473 5.5797873
1.1068914 -2.0817599 5.5522223
1.1064192 -2.0808721 5.5246429
1.1059469 -2.0799837 5.4970493
1.133051 -2.1309593 5.4849076
1.1325865 -2.1300852 5.457355
1.0768038 -2.0251734 5.3985047
1.0763222 -2.0242677 5.3707843
1.0758404 -2.0233614 5.3430495
1.0753583 -2.0224547 5.3153005
1.0748758 -2.0215476 5.2875371
1.0743933 -2.0206399 5.2597594
1.1016848 -2.0719678 5.2480664
1.10121 -2.0710747 5.2203302
1.1007349 -2.0701814 5.1925793
1.1279271 -2.1213224 5.1810474
1.1274598 -2.1204436 5.1533384
1.1269923 -2.1195643 5.1256146
1.1265246 -2.1186845 5.097877
1.1536257 -2.1696544 5.0865607
1.1531657 -2.1687891 5.0588641
1.1527054 -2.1679237 5.0311537
1.179708 -2.218708 5.0199962
1.1792555 -2.2178569 4.9923267
1.1788026 -2.2170053 4.9646435
1.1783496 -2.2161534 4.9369459
1.2052621 -2.2667682 4.9260015
1.2048167 -2.2659307 4.8983455
1.2043711 -2.2650924 4.8706746
1.2039251 -2.2642539 4.8429899
1.2034791 -2.2634149 4.8152909
1.2303096 -2.3138759 4.8046145
1.2298712 -2.3130512 4.776957
1.2294323 -2.3122261 4.7492852
1.2289934 -2.3114004 4.7215991
1.2285542 -2.3105745 4.6938992
1.2281148 -2.3097482 4.6661844
1.2548715 -2.36007 4.6558309
1.2544397 -2.3592579 4.6281576
1.2540076 -2.3584452 4.6004705
1.2535753 -2.3576322 4.5727692
1.2531428 -2.3568189 4.5450535
1.2527101 -2.356005 4.5173235
1.2793931 -2.4061882 4.5072913
1.2789679 -2.4053886 4.4796028
1.2785424 -2.4045885 4.4519005
1.2781168 -2.4037881 4.4241834
1.2776909 -2.4029872 4.3964524
1.2772648 -2.4021859 4.3687077
1.2768385 -2.4013841 4.3409481
1.3034557 -2.4514437 4.3312917
1.3030369 -2.4506562 4.3035741
1.3026179 -2.449868 4.2758422
1.3021986 -2.4490795 4.248096
1.3017793 -2.4482906 4.2203355
1.3013595 -2.4475014 4.1925611
1.3009397 -2.4467118 4.164772
1.3005196 -2.4459217 4.1369691
1.3270788 -2.4958723 4.1277442
1.3266662 -2.4950962 4.0999827
1.3262534 -2.4943199 4.0722075
1.3258404 -2.4935429 4.0444179
1.3254271 -2.4927659 4.016614
1.3250136 -2.4919882 3.9887955
1.3245999 -2.4912102 3.9609632
1.324186 -2.4904318 3.9331164
1.323772 -2.4896529 3.9052556
1.3233576 -2.4888737 3.8773801
1.3229431 -2.4880941 3.8494906
1.3225282 -2.487314 3.8215868
1.3221134 -2.4865336 3.7936685
1.3216982 -2.4857528 3.7657361
1.3482455 -2.535681 3.7572803
1.3478378 -2.5349143 3.7293899
1.3474299 -2.534147 3.7014854
1.3470217 -2.5333793 3.6735666
1.3466134 -2.5326114 3.6456332
1.3462049 -2.5318429 3.6176858
1.3457961 -2.5310743 3.5897238
1.3453871 -2.5303051 3.5617478
1.344978 -2.5295355 3.5337572
1.3445685 -2.5287657 3.5057521
1.3441589 -2.5279953 3.4777329
1.3437492 -2.5272245 3.4496992
1.3433391 -2.5264535 3.4216509
1.3429289 -2.525682 3.3935883
1.3425184 -2.52491 3.3655114
1.3421078 -2.5241377 3.33742
1.341697 -2.523365 3.309314
1.3412858 -2.5225918 3.2811937
1.3408746 -2.5218182 3.2530589
1.340463 -2.5210443 3.2249095
1.3400513 -2.5202701 3.1967459
1.3396394 -2.5194952 3.1685674
1.3392273 -2.5187201 3.1403747
1.338815 -2.5179448 3.1121674
1.3384024 -2.5171688 3.0839455
1.3379896 -2.5163925 3.0557089
1.3375766 -2.5156157 3.027458
1.3371634 -2.5148387 2.9991925
1.33675 -2.5140612 2.9709122
1.3363364 -2.5132833 2.9426174
1.3359226 -2.5125048 2.9143081
1.3355085 -2.5117261 2.8859842
1.3350942 -2.510947 2.8576455
1.3346797 -2.5101676 2.8292923
1.3342651 -2.5093875 2.8009243
1.3338501 -2.5086071 2.7725418
1.3061854 -2.4565775 2.7220538
1.3057621 -2.4557812 2.6935682
1.3053384 -2.4549844 2.6650681
1.3049146 -2.4541874 2.636553
1.3044906 -2.4533899 2.6080232
1.3040662 -2.4525919 2.5794785
1.3036418 -2.4517934 2.5509191
1.3032171 -2.4509947 2.5223448
1.3027921 -2.4501956 2.4937556
1.302367 -2.4493959 2.4651515
1.3019415 -2.448596 2.4365327
1.2740463 -2.3961327 2.3848855
1.2736124 -2.3953164 2.3561621
1.2731781 -2.3944998 2.3274238
1.2727437 -2.3936827 2.2986705
1.2723089 -2.3928652 2.2699022
1.2718741 -2.3920472 2.2411189
1.2160027 -2.2869685 2.1650546
1.2155508 -2.2861185 2.1360896
1.2150985 -2.2852678 2.1071095
1.2701322 -2.3887713 2.1258352
1.2696961 -2.3879511 2.0969768
1.2968198 -2.4389632 2.0919428
1.2963915 -2.4381578 2.0631297
1.295963 -2.4373519 2.0343015
1.2955343 -2.4365456 2.0054584
1.2675126 -2.3838444 1.9524575
1.2670751 -2.3830216 1.9235083
1.2110176 -2.2775929 1.8456024
1.2105631 -2.2767379 1.8164697
1.2101082 -2.2758825 1.7873216
1.2375554 -2.3275032 1.7829187
1.2648846 -2.378902 1.7785348
1.2644458 -2.3780768 1.7494946
1.2640069 -2.3772511 1.7204391
1.2635676 -2.376425 1.6913682
1.2353185 -2.3232963 1.6372571
1.2069175 -2.2698817 1.5828547
1.121756 -2.1097159 1.4769365
1.1496544 -2.1621854 1.4731671
1.1207899 -2.1078992 1.417877
1.1203065 -2.1069901 1.3883238
1.0912759 -2.0523915 1.3326377
0.94587564 -1.7789334 1.1700369
0.9159134 -1.7225826 1.112885
0.88578516 -1.6659197 1.0554165
0.82560199 -1.5527315 0.96998537
0.82502508 -1.5516466 0.93951887
0.79439044 -1.4940312 0.88108438
0.7635842 -1.436093 0.82232255
0.70206839 -1.3203987 0.73468035
0.63989002 -1.2034581 0.64609414
0.60822481 -1.1439044 0.58586347
-0.51467347 0.92849547 6.7456403
-0.44328347 0.79970455 6.7430329
-0.44428337 0.80150843 6.7126045
-0.44528386 0.80331331 6.6821589
-0.41032493 0.74024576 6.6658244
-0.41131359 0.74202937 6.6354284
-0.3408986 0.61499733 6.6333857
0.0043057478 -0.0077677751 6.7414331
0.0034620715 -0.0062457426 6.7119675
0.0026179252 -0.004722862 6.6824851
0.0017733088 -0.0031991338 6.6529865
0.034617998 -0.062452521 6.6372299
0.067313224 -0.12143627 6.6215458
0.066490158 -0.11995142 6.5921559
0.09904781 -0.17868698 6.5766053
0.13145792 -0.23715638 6.5611248
0.16372152 -0.29536146 6.5457144
0.19583958 -0.35330394 6.5303736
0.22781308 -0.41098568 6.5151019
0.25964299 -0.46840838 6.4998984
0.32361451 -0.58381599 6.4985933
0.3869822 -0.69813442 6.4973006
0.41808853 -0.75425166 6.4823136
0.44905707 -0.8101204 6.4673929
0.4483591 -0.80886126 6.4387512
0.47920066 -0.86450088 6.4239559
0.50990617 -0.91989511 6.4092259
0.54047662 -0.97504562 6.3945608
0.53980762 -0.97383869 6.3660803
0.57025337 -1.0287644 6.3515382
0.60056579 -1.0834494 6.33706
0.59991556 -1.0822763 6.3086815
0.59926498 -1.0811026 6.2802882
0.62946373 -1.1355827 6.2659893
0.62882227 -1.1344254 6.237639
0.65889859 -1.1886846 6.2234612
0.65826625 -1.1875437 6.1951537
0.68822086 -1.2415832 6.1810956
0.71804518 -1.2953877 6.167098
0.71743107 -1.2942798 6.1388917
0.74713516 -1.3478675 6.1250129
0.74652988 -1.3467755 6.096849
0.7761144 -1.4001476 6.0830874
0.775518 -1.3990715 6.054966
0.80498368 -1.452229 6.0413213
0.80439597 -1.4511688 6.0132422
0.83374351 -1.5041132 5.9997134
0.83316451 -1.5030686 5.9716768
0.86239457 -1.555801 5.9582629
0.86182415 -1.5547719 5.9302683
0.89093745 -1.6072937 5.9169688
0.89037555 -1.6062801 5.8890166
0.91937274 -1.6585923 5.8758307
0.91881937 -1.657594 5.8479199
0.9182657 -1.6565951 5.8199949
0.94715613 -1.7087148 5.8069782
0.94661093 -1.7077312 5.7790952
0.94606537 -1.7067472 5.7511973
0.97484964 -1.7586753 5.7383485
0.97431248 -1.7577063 5.7104926
0.97377509 -1.7567368 5.682622
1.0024537 -1.8084743 5.6699409
1.0019246 -1.8075198 5.6421118
1.0304896 -1.8590523 5.6295409
1.0589329 -1.9103656 5.617023
1.0872556 -1.9614609 5.6045585
1.0867517 -1.9605519 5.5768828
1.1149627 -2.011446 5.5645266
1.1144669 -2.0105515 5.5368919
1.0852383 -1.9578218 5.4937696
1.0847335 -1.956911 5.4660363
1.0842283 -1.9559995 5.4382892
1.1124811 -2.006969 5.4262109
1.111984 -2.0060723 5.3985047
1.1114867 -2.0051749 5.3707843
1.0822048 -1.9523491 5.3271556
1.1104912 -2.0033791 5.3153005
1.109993 -2.0024805 5.2875371
1.1094947 -2.0015814 5.2597594
1.108996 -2.0006819 5.231967
1.1084971 -1.9997817 5.2041607
1.1366969 -2.0506556 5.1925793
1.1362062 -2.0497701 5.1648145
1.164295 -2.1004436 5.1533384
1.1638122 -2.0995727 5.1256146
1.1633291 -2.0987012 5.097877
1.1913157 -2.1491904 5.0865607
1.1908406 -2.1483333 5.0588641
1.1903653 -2.147476 5.0311537
1.2182502 -2.1977816 5.0199962
1.2177827 -2.1969383 4.9923267
1.2173152 -2.1960948 4.9646435
1.2168473 -2.1952507 4.9369459
1.244639 -2.2453883 4.9260015
1.2441791 -2.2445586 4.8983455
1.243719 -2.2437284 4.8706746
1.2432585 -2.2428977 4.8429899
1.2427979 -2.2420666 4.8152909
1.270505 -2.2920516 4.8046145
1.2700521 -2.2912347 4.776957
1.2695991 -2.2904172 4.7492852
1.2691457 -2.2895997 4.7215991
1.2686923 -2.2887814 4.6938992
1.2682384 -2.2879627 4.6661844
1.2958692 -2.33781 4.6558309
1.2954234 -2.3370056 4.6281576
1.2949772 -2.3362007 4.6004705
1.2945307 -2.3353953 4.5727692
1.2940841 -2.3345895 4.5450535
1.2936373 -2.3337834 4.5173235
1.321192 -2.3834934 4.5072913
1.3207529 -2.3827012 4.4796028
1.3203136 -2.3819087 4.4519005
1.319874 -2.3811157 4.4241834
1.3194343 -2.3803225 4.3964524
1.3189943 -2.3795285 4.3687077
1.318554 -2.3787344 4.3409481
1.3460408 -2.4283218 4.3312917
1.3456084 -2.4275417 4.3035741
1.3451756 -2.4267612 4.2758422
1.3447427 -2.4259801 4.248096
1.3443096 -2.4251986 4.2203355
1.3438761 -2.4244168 4.1925611
1.3434426 -2.4236345 4.164772
1.3708616 -2.4730997 4.1554914
1.3704357 -2.4723315 4.1277442
1.3700097 -2.4715629 4.0999827
1.3695832 -2.4707937 4.0722075
1.3691567 -2.4700241 4.0444179
1.3687299 -2.4692543 4.016614
1.3683029 -2.4684839 3.9887955
1.3678758 -2.4677134 3.9609632
1.3674483 -2.4669421 3.9331164
1.3670207 -2.4661708 3.9052556
1.3665929 -2.4653988 3.8773801
1.3661648 -2.4646266 3.8494906
1.3657365 -2.4638538 3.8215868
1.3653079 -2.4630809 3.7936685
1.3927147 -2.5125239 3.7851562
1.3922939 -2.5117648 3.7572803
1.3918729 -2.5110052 3.7293899
1.3914516 -2.5102451 3.7014854
1.3910302 -2.5094848 3.6735666
1.3906084 -2.508724 3.6456332
1.3901865 -2.5079629 3.6176858
1.3897644 -2.5072014 3.5897238
1.3893421 -2.5064394 3.5617478
1.3889196 -2.5056772 3.5337572
1.3884968 -2.5049145 3.5057521
1.3880738 -2.5041513 3.4777329
1.3876506 -2.5033879 3.4496992
1.3872272 -2.502624 3.4216509
1.3868036 -2.5018599 3.3935883
1.3863797 -2.5010953 3.3655114
1.3859557 -2.5003302 3.33742
1.3855313 -2.4995646 3.309314
1.3851068 -2.4987988 3.2811937
1.3846822 -2.4980328 3.2530589
1.3842572 -2.4972661 3.2249095
1.383832 -2.4964991 3.1967459
1.3834066 -2.4957316 3.1685674
1.3829811 -2.4949639 3.1403747
1.3825552 -2.4941957 3.1121674
1.3821292 -2.493427 3.0839455
1.3817029 -2.4926581 3.0557089
1.3812765 -2.4918888 3.027458
1.3808497 -2.4911189 2.9991925
1.3804228 -2.4903488 2.9709122
1.3799957 -2.4895782 2.9426174
1.3795683 -2.4888072 2.9143081
1.3791407 -2.4880357 2.8859842
1.378713 -2.4872639 2.8576455
1.3782849 -2.4864919 2.8292923
1.3778567 -2.4857192 2.8009243
1.3774282 -2.4849463 2.7725418
1.3769995 -2.4841728 2.7441444
1.3484224 -2.4326184 2.6935682
1.347985 -2.4318292 2.6650681
1.3475473 -2.4310396 2.636553
1.3471094 -2.4302497 2.6080232
1.3466712 -2.4294593 2.5794785
1.3462329 -2.4286685 2.5509191
1.3457943 -2.4278772 2.5223448
1.3453555 -2.4270856 2.4937556
1.3449165 -2.4262934 2.4651515
1.3444772 -2.4255011 2.4365327
1.3156706 -2.3735325 2.3848855
1.3152224 -2.3727241 2.3561621
1.314774 -2.3719151 2.3274238
1.3143253 -2.3711057 2.2986705
1.3138765 -2.3702958 2.2699022
1.3134273 -2.3694856 2.2411189
1.2557306 -2.265398 2.1650546
1.2552639 -2.2645559 2.1360896
1.2547969 -2.2637134 2.1071095
1.2543296 -2.2628706 2.078114
1.2825893 -2.3138523 2.0730979
1.2533944 -2.2611833 2.0200777
1.2529263 -2.260339 1.9910367
1.2524581 -2.2594943 1.9619805
1.2519896 -2.2586491 1.9329089
1.2515209 -2.2578034 1.9038221
1.2221332 -2.2047865 1.8501481
1.1925868 -2.1514835 1.7961845
1.1920997 -2.1506047 1.766897
1.2206984 -2.2021983 1.7625182
1.1911248 -2.1488459 1.7082753
1.2487034 -2.2527204 1.7289793
1.2482328 -2.2518716 1.6997852
1.2766021 -2.3030512 1.6955677
1.27614 -2.3022175 1.6664201
1.24682 -2.2493229 1.6121105
1.2173419 -2.1961429 1.557508
1.2168614 -2.195276 1.5281589
1.1872146 -2.1417918 1.4731671
1.157407 -2.0880177 1.417877
1.1274375 -2.033951 1.3622861
1.0376157 -1.8719081 1.2535115
1.0070034 -1.8166822 1.1968879
0.94583714 -1.7063354 1.112885
0.91472459 -1.6502068 1.0554165
0.85257512 -1.5380863 0.96998537
0.85197943 -1.5370115 0.93951887
0.82034391 -1.4799396 0.88108438
0.75716668 -1.3659649 0.79400223
0.72500563 -1.3079448 0.73468035
0.66079581 -1.1921072 0.64609414
0.62809604 -1.1331153 0.58586347
-0.49337181 0.85454506 6.7595792
-0.45717272 0.79184639 6.7430329
-0.42114398 0.72944278 6.7265649
-0.42216244 0.73120683 6.6962037
-0.4231815 0.73297185 6.6658244
-0.38729659 0.67081738 6.6495671
-0.27870864 0.48273751 6.6614604
0.0044406587 -0.0076914462 6.7414331
0.0035705476 -0.0061843698 6.7119675
0.0026999519 -0.0046764538 6.6824851
0.036562357 -0.063327864 6.666666
0.035702672 -0.061838843 6.6372299
0.069422327 -0.120243 6.6215458
0.068573467 -0.11877274 6.5921559
0.10215124 -0.17693114 6.5766053
0.13557686 -0.234826 6.5611248
0.20278031 -0.35122579 6.559515
0.23574477 -0.40832192 6.5441818
0.23495108 -0.4069472 6.5151019
0.26777831 -0.46380565 6.4998984
0.33375421 -0.57807922 6.4985933
0.3991074 -0.69127429 6.4973006
0.43118834 -0.74684012 6.4823136
0.46312723 -0.80215991 6.4673929
0.49492496 -0.85723519 6.4525385
0.49421531 -0.85600603 6.4239559
0.5258829 -0.91085595 6.4092259
0.55741119 -0.96546447 6.3945608
0.58880103 -1.0198333 6.3799596
0.62005335 -1.0739639 6.3654232
0.6193831 -1.072803 6.33706
0.61871248 -1.0716414 6.3086815
0.64984769 -1.1255692 6.2943244
0.64918649 -1.124424 6.2659893
0.68019551 -1.1781331 6.2517533
0.67954367 -1.1770041 6.2234612
0.71042722 -1.230496 6.2093449
0.70978463 -1.229383 6.1810956
0.74054343 -1.2826588 6.167098
0.73991007 -1.2815619 6.1388917
0.77054489 -1.3346229 6.1250129
0.76992065 -1.3335416 6.096849
0.80043215 -1.3863891 6.0830874
0.79981703 -1.3853238 6.054966
0.83020598 -1.437959 6.0413213
0.82959986 -1.4369091 6.0132422
0.85986692 -1.4893333 5.9997134
0.85926974 -1.4882989 5.9716768
0.88941568 -1.5405132 5.9582629
0.88882738 -1.5394942 5.9302683
0.88823879 -1.5384747 5.9022593
0.91827339 -1.5904962 5.8890166
0.94817913 -1.6422944 5.8758307
0.97795677 -1.6938708 5.8627014
0.97739506 -1.6928979 5.834847
0.97683305 -1.6919245 5.8069782
1.0065013 -1.7433114 5.7940173
1.0059479 -1.742353 5.7661901
1.0053942 -1.7413939 5.7383485
1.0048404 -1.7404345 5.7104926
1.0344086 -1.7916483 5.6977553
1.0338632 -1.7907037 5.6699409
1.0633143 -1.8417145 5.6573138
1.0627775 -1.8407847 5.6295409
1.0622404 -1.8398544 5.6017537
1.0915837 -1.8906785 5.5892916
1.091055 -1.8897629 5.5615458
1.1202825 -1.9403863 5.5491929
1.1197623 -1.9394852 5.5214882
1.1488745 -1.9899091 5.509243
1.1483626 -1.9890224 5.4815798
1.1478505 -1.9881353 5.4539022
1.1176786 -1.9358763 5.4105272
1.1171571 -1.9349729 5.382751
1.1166353 -1.934069 5.3549604
1.086285 -1.8815007 5.3111849
1.0857536 -1.8805803 5.2832952
1.1150681 -1.9313546 5.271502
1.1145451 -1.9304489 5.2436538
1.114022 -1.9295427 5.2157907
1.1432292 -1.9801313 5.2041607
1.1427145 -1.9792396 5.1763396
1.1718066 -2.0296285 5.1648145
1.2007754 -2.0798039 5.1533384
1.2002774 -2.0789416 5.1256146
1.1997794 -2.0780787 5.097877
1.2286428 -2.1280718 5.0865607
1.2281529 -2.127223 5.0588641
1.2276627 -2.126374 5.0311537
1.2564212 -2.1761854 5.0199962
1.2559391 -2.1753504 4.9923267
1.2554569 -2.1745152 4.9646435
1.284111 -2.2241457 4.9536438
1.2836369 -2.2233243 4.9260015
1.2831626 -2.2225027 4.8983455
1.2826879 -2.2216806 4.8706746
1.2822131 -2.2208583 4.8429899
1.31078 -2.2703376 4.8322582
1.3103132 -2.2695291 4.8046145
1.3098462 -2.2687201 4.776957
1.309379 -2.267911 4.7492852
1.3089114 -2.2671013 4.7215991
1.3084438 -2.2662911 4.6938992
1.3369321 -2.3156343 4.6834898
1.3364723 -2.3148379 4.6558309
1.3360124 -2.3140414 4.6281576
1.3355522 -2.3132443 4.6004705
1.3350918 -2.3124468 4.5727692
1.3634934 -2.36164 4.5626254
1.363041 -2.3608563 4.5349655
1.3625884 -2.3600724 4.5072913
1.3621355 -2.359288 4.4796028
1.3616825 -2.3585033 4.4519005
1.3612292 -2.357718 4.4241834
1.3607756 -2.3569326 4.3964524
1.3891072 -2.4060044 4.3866849
1.3886617 -2.4052327 4.3589954
1.3882159 -2.4044604 4.3312917
1.3877698 -2.403688 4.3035741
1.3873236 -2.402915 4.2758422
1.3868771 -2.4021416 4.248096
1.3864304 -2.4013679 4.2203355
1.4146922 -2.4503188 4.2109427
1.4142534 -2.4495587 4.1832242
1.4138144 -2.4487984 4.1554914
1.4133751 -2.4480376 4.1277442
1.4129357 -2.4472764 4.0999827
1.412496 -2.4465148 4.0722075
1.4120561 -2.4457529 4.0444179
1.411616 -2.4449906 4.016614
1.4111756 -2.4442277 3.9887955
1.410735 -2.4434648 3.9609632
1.4102942 -2.4427011 3.9331164
1.4098531 -2.4419372 3.9052556
1.4094119 -2.4411731 3.8773801
1.4376528 -2.4900877 3.8686986
1.4372195 -2.4893372 3.8408654
1.4367859 -2.4885862 3.8130181
1.4363521 -2.4878349 3.7851562
1.4359182 -2.4870832 3.7572803
1.4354839 -2.4863312 3.7293899
1.4350495 -2.4855785 3.7014854
1.4346148 -2.4848258 3.6735666
1.4341799 -2.4840724 3.6456332
1.4337448 -2.4833188 3.6176858
1.4333094 -2.4825649 3.5897238
1.432874 -2.4818103 3.5617478
1.4324381 -2.4810555 3.5337572
1.4320021 -2.4803004 3.5057521
1.4315659 -2.4795449 3.4777329
1.4311295 -2.4787889 3.4496992
1.4306928 -2.4780326 3.4216509
1.4302559 -2.4772758 3.3935883
1.4298187 -2.4765186 3.3655114
1.4293814 -2.4757612 3.33742
1.4289438 -2.4750032 3.309314
1.4285059 -2.4742448 3.2811937
1.4280679 -2.4734862 3.2530589
1.4276297 -2.4727271 3.2249095
1.4271911 -2.4719677 3.1967459
1.4267524 -2.4712079 3.1685674
1.4263135 -2.4704475 3.1403747
1.4258744 -2.4696867 3.1121674
1.4254349 -2.4689257 3.0839455
1.4249954 -2.4681644 3.0557089
1.4245555 -2.4674025 3.027458
1.4241154 -2.4666402 2.9991925
1.4236752 -2.4658778 2.9709122
1.4232347 -2.4651148 2.9426174
1.4227939 -2.4643514 2.9143081
1.4223529 -2.4635875 2.8859842
1.4219117 -2.4628234 2.8576455
1.4214703 -2.4620588 2.8292923
1.4210286 -2.4612937 2.8009243
1.4205867 -2.4605284 2.7725418
1.4201446 -2.4597626 2.7441444
1.4197023 -2.4589965 2.7157326
1.4192597 -2.4582298 2.6873059
1.3897696 -2.4071515 2.636553
1.3893179 -2.4063692 2.6080232
1.3888661 -2.4055865 2.5794785
1.3884139 -2.4048035 2.5509191
1.3879616 -2.4040201 2.5223448
1.3875091 -2.4032362 2.4937556
1.3870562 -2.402452 2.4651515
1.3866032 -2.4016674 2.4365327
1.38615 -2.4008822 2.4078991
1.3856964 -2.4000967 2.3792505
1.3852427 -2.3993108 2.3505869
1.3555067 -2.3478065 2.2986705
1.3550438 -2.3470047 2.2699022
1.3545805 -2.3462024 2.2411189
1.3246677 -2.2943916 2.1887445
1.2945946 -2.2423036 2.1360896
1.294113 -2.2414694 2.1071095
1.2936311 -2.2406347 2.078114
1.2633781 -2.188235 2.0249929
1.2628868 -2.1873839 1.9958905
1.262395 -2.1865323 1.9667727
1.2619032 -2.1856804 1.9376396
1.261411 -2.1848278 1.9084911
1.2609185 -2.183975 1.8793273
1.2604258 -2.1831214 1.8501481
1.2299538 -2.1303422 1.7961845
1.2294514 -2.1294723 1.766897
1.2589462 -2.1805587 1.7625182
1.2584524 -2.1797035 1.7332773
1.2579584 -2.1788478 1.7040211
1.2574642 -2.1779916 1.6747494
1.2868578 -2.2289033 1.6705757
1.2863722 -2.2280619 1.6413507
1.2259275 -2.1233687 1.5614494
1.2554845 -2.1745629 1.557508
1.2549889 -2.1737044 1.5281589
1.254493 -2.1728456 1.4987943
1.2239079 -2.1198709 1.4437084
1.2234024 -2.1189952 1.4142342
1.0701269 -1.8535141 1.2535115
1.0385555 -1.7988309 1.1968879
0.97547275 -1.6895684 1.112885
0.91172349 -1.5791515 1.0279948
0.87928861 -1.5229726 0.96998537
0.87867421 -1.5219084 0.93951887
0.84604746 -1.4653972 0.88108438
0.78089076 -1.3525424 0.79400223
0.74772197 -1.2950925 0.73468035
0.71436584 -1.2373179 0.67502338
0.64777595 -1.1219809 0.58586347
-0.50821054 0.84580439 6.7595792
-0.47092274 0.78374702 6.7430329
-0.43381038 0.7219817 6.7265649
-0.43485948 0.7237277 6.6962037
-0.43590918 0.72547472 6.6658244
-0.39894497 0.66395599 6.6495671
-0.28709111 0.47779983 6.6614604
-0.2137807 0.35579085 6.6593108
0.0036779358 -0.006121113 6.7119675
0.002781156 -0.004628621 6.6824851
0.0018838767 -0.0031352974 6.6529865
0.036776472 -0.061206326 6.6372299
0.035890438 -0.059731722 6.6077781
0.0706359 -0.11755788 6.5921559
0.14050587 -0.23384103 6.5903897
0.17476977 -0.29086575 6.5749173
0.20887916 -0.3476333 6.559515
0.24283507 -0.40414542 6.5441818
0.24201749 -0.40278476 6.5151019
0.3102906 -0.51641029 6.5137215
0.34379226 -0.57216638 6.4985933
0.41111103 -0.68420362 6.4973006
0.44415683 -0.73920113 6.4823136
0.47705632 -0.79395503 6.4673929
0.50981039 -0.84846699 6.4525385
0.5090794 -0.8472504 6.4239559
0.54169947 -0.90153927 6.4092259
0.57417595 -0.95558929 6.3945608
0.60650986 -1.0094019 6.3799596
0.63870215 -1.0629789 6.3654232
0.63801175 -1.0618299 6.33706
0.637321 -1.0606803 6.3086815
0.66939259 -1.1140563 6.2943244
0.66871154 -1.1129229 6.2659893
0.7006532 -1.1660827 6.2517533
0.69998175 -1.1649653 6.2234612
0.73179412 -1.2179099 6.2093449
0.73113221 -1.2168083 6.1810956
0.76281613 -1.2695392 6.167098
0.7621637 -1.2684535 6.1388917
0.79371989 -1.3209717 6.1250129
0.79307687 -1.3199016 6.096849
0.8245061 -1.3722086 6.0830874
0.82387245 -1.371154 6.054966
0.85517538 -1.4232508 6.0413213
0.85455102 -1.4222118 6.0132422
0.88572842 -1.4740996 5.9997134
0.8851133 -1.4730759 5.9716768
0.91616589 -1.5247561 5.9582629
0.91555989 -1.5237476 5.9302683
0.91495359 -1.5227385 5.9022593
0.91434699 -1.5217289 5.8742352
0.94529432 -1.573234 5.8610492
0.97610885 -1.6245179 5.8479199
0.97552067 -1.623539 5.8199949
0.97493213 -1.6225595 5.7920551
1.0677638 -1.7770573 5.8088684
1.0980554 -1.827471 5.7959619
1.0975038 -1.826553 5.768261
1.096952 -1.8256346 5.7405457
1.0655196 -1.7733225 5.6977553
1.1265898 -1.8749602 5.7001309
1.1260463 -1.8740557 5.6724429
1.1255026 -1.8731509 5.6447401
1.1249586 -1.8722456 5.617023
1.1244143 -1.8713398 5.5892916
1.1238698 -1.8704334 5.5615458
1.1539763 -1.9205391 5.5491929
1.1534405 -1.9196472 5.5214882
1.1834283 -1.9695554 5.509243
1.1829009 -1.9686778 5.4815798
1.1823734 -1.9677998 5.4539022
1.1512941 -1.9160752 5.4105272
1.150757 -1.915181 5.382751
1.1502193 -1.9142865 5.3549604
1.1802605 -1.9642833 5.3430495
1.1797316 -1.9634031 5.3153005
1.1792024 -1.9625224 5.2875371
1.209134 -2.012337 5.2757883
1.1781433 -1.9607596 5.231967
1.2080926 -2.0106037 5.2203302
1.2075714 -2.0097363 5.1925793
1.2374027 -2.0593839 5.1810474
1.2368901 -2.0585308 5.1533384
1.2363772 -2.0576773 5.1256146
1.235864 -2.0568233 5.097877
1.2655957 -2.1063049 5.0865607
1.2650909 -2.1054649 5.0588641
1.264586 -2.1046245 5.0311537
1.2942095 -2.1539264 5.0199962
1.293713 -2.1531 4.9923267
1.2932162 -2.1522732 4.9646435
1.2927192 -2.1514461 4.9369459
1.3222438 -2.2005832 4.9260015
1.3217552 -2.19977 4.8983455
1.3212663 -2.1989563 4.8706746
1.3207772 -2.1981423 4.8429899
1.3502033 -2.2471156 4.8322582
1.3497224 -2.2463152 4.8046145
1.3492414 -2.2455146 4.776957
1.34876 -2.2447138 4.7492852
1.3482785 -2.2439122 4.7215991
1.3477967 -2.2431104 4.6938992
1.3473146 -2.2423081 4.6661844
1.3766682 -2.2911608 4.6558309
1.3761945 -2.2903724 4.6281576
1.3757205 -2.2895834 4.6004705
1.3752463 -2.288794 4.5727692
1.3747718 -2.2880044 4.5450535
1.404036 -2.3367085 4.5349655
1.4035698 -2.3359325 4.5072913
1.4031034 -2.3351562 4.4796028
1.4026366 -2.3343794 4.4519005
1.4021697 -2.3336022 4.4241834
1.4017025 -2.3328247 4.3964524
1.4012351 -2.3320467 4.3687077
1.4304273 -2.3806307 4.3589954
