# .PCD v0.7 - Point Cloud Data file format
VERSION 0.7
FIELDS x y z
SIZE 4 4 4
TYPE F F F
COUNT 1 1 1
WIDTH 1579
HEIGHT 1
VIEWPOINT 0 0 0 1 0 0 0
POINTS 1579
DATA ascii
1.7370936 0.53108281 7.3185363
1.7337925 0.53007358 7.2916293
1.7880913 0.54667437 7.2709837
1.7848171 0.54567331 7.2441087
1.8388944 0.56220645 7.2236123
1.8927226 0.57866335 7.2032104
1.8895041 0.57767934 7.1764216
1.9431136 0.59406942 7.156167
1.9399213 0.59309345 7.1294103
1.9933134 0.60941708 7.1093016
2.0464611 0.62566596 7.0892854
2.0433233 0.62470663 7.062614
2.0962563 0.64088988 7.0427423
2.0931442 0.63993835 7.0161028
2.1458638 0.65605634 6.9963746
2.142777 0.65511268 6.9697666
2.1952844 0.67116582 6.950181
2.1922231 0.67022985 6.9236054
2.2445195 0.6862185 6.9041615
2.2414834 0.68529028 6.8776174
2.2935703 0.70121479 6.858314
2.2905591 0.7002942 6.8318019
2.3424373 0.71615493 6.8126383
2.3394511 0.71524191 6.7861576
2.3911216 0.73103929 6.7671332
2.3881602 0.73013383 6.7406845
2.1645622 0.66177303 6.6834745
2.217108 0.67783797 6.6645088
2.3244843 0.71066624 6.6534419
2.5926349 0.79264808 6.6656461
2.6431823 0.80810195 6.6470962
2.5332019 0.7744776 6.6052775
2.5303113 0.77359378 6.5789022
2.5811908 0.78914917 6.5604768
2.5783241 0.7882728 6.534133
2.6290019 0.80376649 6.5158415
2.626159 0.80289739 6.4895296
2.6233141 0.80202758 6.4631968
2.6738172 0.81746793 6.4450908
2.670996 0.81660545 6.4187894
2.7212994 0.83198476 6.400816
2.7185018 0.83112943 6.3745461
2.7157023 0.83027351 6.3482556
2.7129002 0.82941687 6.3219452
2.7630565 0.84475118 6.3042068
2.7602782 0.84390175 6.2779274
2.7574975 0.84305161 6.2516279
2.8074818 0.85833329 6.2340717
2.8047247 0.85749036 6.2078037
2.854512 0.8727119 6.1903772
2.9040785 0.8878659 6.1730285
2.9013696 0.88703769 6.146843
2.8986588 0.88620889 6.1206379
2.948056 0.9013111 6.1034679
2.9453678 0.90048933 6.0772939
2.942678 0.89966691 6.0510998
2.9399858 0.89884382 6.0248852
2.9892392 0.9139021 6.0079455
2.9865699 0.91308606 5.9817629
2.9838984 0.91226929 5.9555593
2.981225 0.911452 5.9293361
3.0303352 0.92646641 5.9126258
3.0276845 0.92565602 5.8864336
3.0766025 0.94061178 5.8698483
3.0739744 0.93980831 5.8436875
3.0713444 0.93900418 5.8175073
3.120096 0.95390904 5.8010974
3.1174881 0.95311177 5.7749481
3.1148784 0.9523139 5.7487788
3.1122668 0.95151544 5.7225895
3.109653 0.95071632 5.6963801
3.1070373 0.94991666 5.6701508
3.1044197 0.94911635 5.6439013
3.1018 0.94831538 5.6176314
3.0991781 0.94751388 5.591342
3.0965545 0.94671172 5.5650315
3.0939286 0.9459089 5.5387015
3.1427097 0.96082276 5.5228801
3.1401064 0.96002686 5.496582
3.137501 0.95923036 5.4702635
3.186116 0.97409338 5.4546156
3.183533 0.97330374 5.428329
3.180948 0.97251344 5.4020224
3.1783612 0.97172254 5.3756952
3.2268348 0.9865424 5.3602719
3.2242701 0.9857583 5.3339772
3.2217035 0.98497367 5.307662
3.219135 0.98418838 5.2813268
3.2165644 0.98340249 5.2549715
3.2649217 0.99818671 5.2398243
3.2623732 0.99740762 5.213501
3.2598228 0.99662787 5.1871572
3.2572706 0.99584758 5.1607938
3.2547164 0.9950667 5.1344099
3.3029573 1.0098153 5.1195378
3.3004251 1.0090412 5.0931864
3.2978909 1.0082664 5.0668144
3.2953551 1.0074911 5.0404229
3.2928171 1.0067152 5.0140109
3.2902772 1.0059386 4.9875784
3.3384259 1.0206592 4.9730334
3.3359079 1.0198895 4.9466333
3.0770235 0.94074053 4.8593187
3.0743697 0.93992913 4.832509
3.0717137 0.93911713 4.8056788
3.3258173 1.0168043 4.8408322
3.3738739 1.0314968 4.8266134
3.3713703 1.0307313 4.8001657
3.3688648 1.0299653 4.7736974
3.3663573 1.0291988 4.7472086
3.363848 1.0284315 4.7207003
3.3613367 1.0276638 4.694171
3.3588235 1.0268954 4.6676221
3.3563085 1.0261265 4.6410522
3.3537915 1.0253569 4.6144624
3.3512726 1.0245868 4.5878525
3.3993325 1.0392803 4.5741725
3.3968356 1.0385169 4.547595
3.3943367 1.0377529 4.5209975
3.3918359 1.0369884 4.4943795
3.3893332 1.0362232 4.4677415
3.3868287 1.0354574 4.441083
3.3843222 1.0346911 4.4144039
3.3818135 1.0339242 4.3877044
3.3793032 1.0331566 4.3609843
3.376791 1.0323886 4.3342443
3.3742766 1.0316199 4.3074832
3.3717606 1.0308506 4.2807016
3.3692424 1.0300808 4.2539001
3.3667223 1.0293103 4.2270775
3.3642004 1.0285393 4.2002344
3.4123838 1.0432705 4.187366
3.409884 1.0425061 4.1605568
3.407382 1.0417413 4.1337271
3.4048784 1.0409758 4.1068764
3.4023728 1.0402098 4.0800052
3.3998652 1.0394431 4.0531135
3.3973558 1.0386759 4.0262012
3.3948443 1.0379081 3.9992681
3.3923311 1.0371397 3.9723144
3.3898158 1.0363706 3.9453399
3.3872986 1.0356011 3.9183447
3.3847795 1.0348309 3.8913286
3.3822584 1.0340601 3.8642919
3.3797355 1.0332888 3.8372343
3.3772104 1.0325168 3.8101559
3.3746836 1.0317442 3.7830565
3.3721547 1.0309712 3.7559364
3.3696239 1.0301974 3.7287953
3.3670912 1.0294231 3.7016332
3.3645563 1.0286481 3.6744502
3.3620198 1.0278726 3.6472461
3.3594811 1.0270965 3.6200211
3.3569405 1.0263197 3.5927751
3.354398 1.0255424 3.5655081
3.3518534 1.0247644 3.5382199
3.3493071 1.0239859 3.5109105
3.3467586 1.0232068 3.4835801
3.3442082 1.0224271 3.4562287
3.3416557 1.0216467 3.4288559
3.3391013 1.0208657 3.4014618
3.336545 1.0200841 3.3740468
3.2824626 1.0035495 3.3302372
3.2798755 1.0027585 3.302701
3.2772863 1.001967 3.2751431
3.2746952 1.0011748 3.2475641
3.2721021 1.0003819 3.2199636
3.2695069 0.99958861 3.1923413
3.2669098 0.99879456 3.1646979
3.2643106 0.99799991 3.1370327
3.2617095 0.9972046 3.1093459
3.2591062 0.9964087 3.0816376
3.2565007 0.9956122 3.0539076
3.2538934 0.99481505 3.0261559
3.2512841 0.9940173 2.9983828
3.2486727 0.99321896 2.9705877
3.1938832 0.97646809 2.9251952
3.1912403 0.97566009 2.8972762
2.9768732 0.91012144 2.7974358
2.9741137 0.90927786 2.7691445
2.9713523 0.90843356 2.7408309
3.120007 0.95388186 2.6829064
3.1173196 0.95306027 2.6547291
3.1146302 0.95223802 2.6265299
3.1119385 0.95141512 2.5983083
3.0561757 0.9343667 2.5513141
3.0534515 0.93353385 2.5229647
3.0507255 0.93270034 2.4945931
3.047997 0.93186617 2.4661989
3.0452664 0.93103135 2.4377823
2.989037 0.91384035 2.3900728
2.9862735 0.91299546 2.361527
2.9835079 0.91214985 2.3329582
2.9268682 0.89483339 2.2847383
2.9240689 0.89397758 2.2560391
2.9212675 0.89312112 2.2273169
2.9184639 0.89226401 2.1985717
2.9156582 0.89140612 2.1698034
2.8585401 0.87394345 2.1208484
2.8557005 0.87307525 2.0919478
2.8528583 0.87220633 2.0630243
2.850014 0.87133676 2.0340772
2.8471675 0.87046641 2.0051072
2.8443186 0.86959547 1.9761137
2.8414674 0.86872375 1.9470968
2.7838004 0.85109317 1.8971733
2.7257712 0.83335185 1.8469362
2.6673765 0.81549883 1.7963828
2.6644254 0.81459659 1.767007
2.5494771 0.77945334 1.6943146
2.546459 0.77853066 1.6647109
2.5434384 0.7776072 1.6350831
2.4838586 0.75939178 1.5833316
2.4238982 0.74106008 1.5312496
2.363554 0.72261095 1.4788343
2.3028219 0.70404333 1.4260821
2.0065594 0.61346674 1.2797966
1.9435707 0.59420919 1.2254475
1.8197927 0.55636644 1.1466438
1.6944813 0.5180549 1.0668638
1.629464 0.49817714 1.0109515
1.1849737 0.36228281 0.80178612
0.98642242 0.30157959 0.69089919
0.98247206 0.30037186 0.65847462
0.97851819 0.29916304 0.62602139
1.0399766 0.31795275 0.62029135
1.0360564 0.31675422 0.58788937
1.0972406 0.3354601 0.58226782
1.1581157 0.3540715 0.5766747
1.2186842 0.37258914 0.57110977
1.2148701 0.37142307 0.53891701
1.3389105 0.40934601 0.56006354
1.3351678 0.40820175 0.52802742
1.4579376 0.44573623 0.54912746
1.5793836 0.48286602 0.57000005
1.6378349 0.50073636 0.56455034
1.6959977 0.51851851 0.55912757
1.7538742 0.53621316 0.5537315
1.8114663 0.55382085 0.54836196
1.8687763 0.57134223 0.5430187
1.9258062 0.58877802 0.53770155
1.982558 0.60612881 0.53241032
2.0390339 0.6233952 0.52714485
2.0952356 0.64057779 0.52190489
2.1511652 0.65767723 0.51669031
2.206825 0.67469412 0.5115009
2.320519 0.70945388 0.53190953
2.3173418 0.7084825 0.50119692
2.4299183 0.74290055 0.5215615
2.4842267 0.75950432 0.51642454
2.5382764 0.77602899 0.51131195
2.6456087 0.80884373 0.50115949
0.22257899 0.072320297 7.8357649
0.21843711 0.070974514 7.8073287
0.27965266 0.090864658 7.7840729
0.34056735 0.11065704 7.760931
0.40118337 0.13035238 7.7379026
0.39714625 0.12904064 7.7096219
0.45750129 0.14865118 7.6867657
0.64459795 0.20944257 7.6749282
0.70371884 0.2286521 7.6523962
0.82489443 0.26802444 7.6354814
0.94480807 0.30698675 7.6187429
1.0024559 0.32571769 7.5966334
1.059829 0.34435931 7.5746293
1.1169291 0.36291227 7.5527301
1.113308 0.36173567 7.5252151
1.1701691 0.380211 7.5034761
1.226761 0.39859879 7.4818397
1.2232007 0.39744198 7.4544153
1.2795566 0.41575316 7.4329371
1.3356467 0.43397796 7.4115605
1.3321464 0.43284062 7.3842249
1.4470373 0.47017094 7.3691082
1.5023414 0.48814031 7.348031
1.6733381 0.54370052 7.3393321
1.6700256 0.54262424 7.3123708
1.7242774 0.56025171 7.2916293
1.7782781 0.57779759 7.2709837
1.7750219 0.57673961 7.2441087
1.8288025 0.59421396 7.2236123
1.8823353 0.61160779 7.2032104
1.8791343 0.61056775 7.1764216
1.9324497 0.62789094 7.156167
1.9292749 0.62685943 7.1294103
1.9823741 0.64411235 7.1093016
1.9792252 0.64308923 7.0825772
2.0321095 0.66027236 7.062614
2.0847518 0.67737699 7.0427423
2.0816569 0.67637128 7.0161028
2.1340871 0.69340694 6.9963746
2.1310174 0.69240952 6.9697666
2.1832366 0.70937657 6.950181
2.1801922 0.70838737 6.9236054
2.2322016 0.72528625 6.9041615
2.229182 0.72430515 6.8776174
2.280983 0.74113631 6.858314
2.2779884 0.74016327 6.8318019
2.4378967 0.7921207 6.827261
2.4349852 0.79117459 6.8009262
2.4858575 0.80770409 6.7819686
2.3750539 0.77170175 6.7406845
2.4262359 0.78833187 6.7217979
2.423315 0.78738284 6.6953802
2.4742935 0.80394667 6.676631
2.4713967 0.80300546 6.6502452
2.5221722 0.81950349 6.6316319
2.5192997 0.81857008 6.6052775
2.5164249 0.81763601 6.5789022
2.5670249 0.834077 6.5604768
2.5641742 0.83315068 6.534133
2.6145737 0.84952646 6.5158415
2.6117465 0.8486079 6.4895296
2.6089172 0.84768856 6.4631968
2.6591432 0.86400801 6.4450908
2.6563375 0.86309636 6.4187894
2.6535296 0.86218405 6.3924675
2.7035828 0.87844723 6.3745461
2.7007983 0.87754256 6.3482556
2.6980119 0.87663716 6.3219452
2.7478929 0.8928445 6.3042068
2.7451296 0.89194667 6.2779274
2.7423644 0.89104819 6.2516279
2.7920742 0.90719992 6.2340717
2.7893322 0.90630895 6.2078037
2.8388462 0.92239708 6.1903772
2.8361273 0.92151362 6.1641407
2.8854468 0.9375385 6.146843
2.8827507 0.9366625 6.1206379
2.8800528 0.93578583 6.0944118
2.9292035 0.95175594 6.0772939
2.9265285 0.95088673 6.0510998
2.923851 0.9500168 6.0248852
2.9211717 0.94914621 5.9986506
2.9701793 0.96506977 5.9817629
2.9675226 0.96420658 5.9555593
2.964864 0.96334273 5.9293361
3.0137045 0.97921199 5.9126258
3.0110683 0.97835541 5.8864336
3.0084302 0.97749823 5.8602219
3.00579 0.9766404 5.8339896
3.0544887 0.99246353 5.8175073
3.0518708 0.99161297 5.7913065
3.0492511 0.99076176 5.7650857
3.0466294 0.98990989 5.7388449
3.0951865 1.005687 5.7225895
3.0925872 1.0048425 5.6963801
3.0899858 1.0039972 5.6701508
3.0873826 1.0031514 5.6439013
3.0847771 1.0023048 5.6176314
3.0821698 1.0014577 5.591342
3.0795605 1.0006099 5.5650315
3.1280494 1.0163648 5.5491586
3.1254623 1.0155243 5.5228801
3.1228733 1.014683 5.496582
3.1202824 1.0138412 5.4702635
3.1686304 1.0295504 5.4546156
3.1660616 1.0287157 5.428329
3.163491 1.0278805 5.4020224
3.1609182 1.0270445 5.3756952
3.2091258 1.0427082 5.3602719
3.2065754 1.0418794 5.3339772
3.2040229 1.0410501 5.307662
3.2014682 1.0402201 5.2813268
3.1989119 1.0393895 5.2549715
3.1963534 1.0385582 5.2285957
3.1937933 1.0377263 5.2021999
3.2419329 1.0533679 5.1871572
3.2393947 1.0525432 5.1607938
3.2368543 1.0517178 5.1344099
3.2343123 1.0508918 5.108006
3.2317681 1.0500652 5.0815821
3.024298 0.98265398 5.0078187
3.0216439 0.98179162 4.9810591
3.0189879 0.98092866 4.9542785
3.2722199 1.0632087 4.9875784
3.2696922 1.0623873 4.9611263
3.3176005 1.0779537 4.9466333
3.3150945 1.0771395 4.9202137
3.3125865 1.0763246 4.8937731
3.3100767 1.0755092 4.8673129
3.307565 1.0746931 4.8408322
3.3050513 1.0738763 4.8143315
3.302536 1.073059 4.7878103
3.3000183 1.0722409 4.7612691
3.3478827 1.087793 4.7472086
3.345387 1.0869821 4.7207003
3.3428895 1.0861707 4.694171
3.3403902 1.0853586 4.6676221
3.337889 1.0845459 4.6410522
3.3353858 1.0837325 4.6144624
3.3328805 1.0829185 4.5878525
3.3303735 1.082104 4.5612216
3.3781936 1.0976417 4.547595
3.3757086 1.0968342 4.5209975
3.3732214 1.0960261 4.4943795
3.3707325 1.0952173 4.4677415
3.3682415 1.094408 4.441083
3.3657489 1.0935981 4.4144039
3.3632541 1.0927875 4.3877044
3.3607574 1.0919763 4.3609843
3.358259 1.0911645 4.3342443
3.3557584 1.0903521 4.3074832
3.3532562 1.0895389 4.2807016
3.3507519 1.0887253 4.2539001
3.3482456 1.087911 4.2270775
3.3457375 1.087096 4.2002344
3.3432274 1.0862805 4.1733704
3.3407156 1.0854642 4.1464863
3.3382015 1.0846474 4.1195812
3.3861923 1.1002406 4.1068764
3.3837004 1.0994309 4.0800052
3.3812068 1.0986207 4.0531135
3.378711 1.0978097 4.0262012
3.3762133 1.0969982 3.9992681
3.3737137 1.096186 3.9723144
3.3712122 1.0953733 3.9453399
3.3687088 1.0945599 3.9183447
3.3662035 1.0937458 3.8913286
3.3636963 1.0929313 3.8642919
3.3611872 1.0921159 3.8372343
3.3586762 1.0913 3.8101559
3.356163 1.0904835 3.7830565
3.3536482 1.0896664 3.7559364
3.3511312 1.0888486 3.7287953
3.3486123 1.0880301 3.7016332
3.3460915 1.087211 3.6744502
3.3435688 1.0863913 3.6472461
3.3410442 1.0855711 3.6200211
3.3385174 1.0847501 3.5927751
3.335989 1.0839285 3.5655081
3.3334584 1.0831063 3.5382199
3.3309259 1.0822834 3.5109105
3.3283913 1.0814599 3.4835801
3.2747197 1.064021 3.4401686
3.2721548 1.0631876 3.4127176
3.269588 1.0623535 3.3852456
3.267019 1.0615189 3.3577521
3.2644482 1.0606835 3.3302372
3.2618754 1.0598476 3.302701
3.2593005 1.0590109 3.2751431
3.2567236 1.0581737 3.2475641
3.2541447 1.0573357 3.2199636
3.2515638 1.0564971 3.1923413
3.2489808 1.0556579 3.1646979
3.2463958 1.0548179 3.1370327
3.243809 1.0539774 3.1093459
3.24122 1.0531362 3.0816376
3.1710963 1.0303516 2.8693352
3.1684637 1.0294963 2.8413723
3.1658292 1.0286403 2.8133874
3.1631925 1.0277836 2.7853806
3.1082232 1.009923 2.7391939
3.1055548 1.009056 2.7110612
3.1028843 1.0081882 2.6829064
3.1002116 1.0073198 2.6547291
3.097537 1.0064508 2.6265299
3.0948601 1.005581 2.5983083
3.0394032 0.987562 2.5513141
3.036694 0.98668176 2.5229647
3.0339828 0.9858008 2.4945931
3.0312693 0.98491913 2.4661989
2.9753792 0.96675932 2.4185963
2.9726331 0.96586704 2.3900728
2.9698846 0.96497405 2.361527
2.9135869 0.94668174 2.3134148
2.9108052 0.94577801 2.2847383
2.8541265 0.92736191 2.2362189
2.8513112 0.92644721 2.2074108
2.8484941 0.9255318 2.1785798
2.8456743 0.92461562 2.1497257
2.788547 0.90605384 2.100575
2.7856932 0.90512657 2.0715876
2.7828372 0.90419865 2.042577
2.779979 0.90326989 2.0135431
2.7771182 0.90234041 1.9844859
2.7195046 0.88362062 1.9345834
2.7166095 0.88267988 1.9053913
2.6586006 0.8638317 1.8550628
2.6556704 0.86287963 1.8257347
2.5972624 0.84390169 1.7749752
2.5942969 0.84293813 1.74551
2.5354855 0.82382917 1.6943146
2.5324841 0.82285392 1.6647109
2.4732647 0.80361247 1.6130749
2.4136677 0.78424817 1.5611093
2.3536892 0.76475996 1.5088112
2.2933254 0.74514663 1.4561771
2.2325728 0.72540689 1.403204
2.0545058 0.66754943 1.3032928
1.8732364 0.6086514 1.2015847
1.8098056 0.58804148 1.1466438
1.6851819 0.54754877 1.0668638
1.4348935 0.46622515 0.9359296
1.1784705 0.38290828 0.80178612
0.91568464 0.29752398 0.66431403
0.97708023 0.31747261 0.65847462
0.97314805 0.31619498 0.62602139
1.0342692 0.33605441 0.62029135
1.0303705 0.33478767 0.58788937
1.0912188 0.3545585 0.58226782
1.1517599 0.37422949 0.5766747
1.211996 0.39380136 0.57110977
1.2719295 0.41327491 0.56557274
1.2681719 0.41205403 0.53345853
1.3278403 0.43144149 0.52802742
1.4499363 0.47111288 0.54912746
1.5707159 0.51035655 0.57000005
1.6288464 0.5292443 0.56455034
1.6252997 0.52809191 0.53292644
1.6831769 0.54689729 0.52757937
1.8015249 0.58535093 0.54836196
1.8585204 0.60386986 0.5430187
1.9152373 0.6222983 0.53770155
1.9716777 0.64063692 0.53241032
2.0278435 0.65888631 0.52714485
2.0837369 0.67704713 0.52190489
2.1393597 0.6951201 0.51669031
2.5778446 0.83759248 0.50622368
2.6310894 0.85489279 0.50115949
0.22128291 0.076193817 7.8357649
0.21716516 0.074775957 7.8073287
0.27802426 0.09573143 7.7840729
0.33858424 0.1165839 7.760931
0.39884728 0.13733414 7.7379026
0.39483368 0.13595214 7.7096219
0.45483729 0.15661304 7.6867657
0.514548 0.17717309 7.664021
0.69962108 0.24089886 7.6523962
0.69578427 0.23957774 7.624434
1.060913 0.36530161 7.629703
1.0572867 0.36405304 7.6021776
1.1140224 0.38358864 7.5802217
1.1104252 0.38235009 7.5527301
1.1068252 0.38111049 7.5252151
1.1633552 0.40057534 7.5034761
1.2196176 0.41994801 7.4818397
1.275614 0.43922913 7.4603057
1.2721058 0.43802118 7.4329371
1.3278694 0.4572221 7.4115605
1.3243895 0.45602387 7.3842249
1.4386114 0.49535361 7.3691082
1.4935933 0.51428545 7.348031
1.606114 0.55302942 7.333209
1.6603012 0.57168752 7.3123708
1.7142371 0.59025913 7.2916293
1.7109706 0.58913445 7.2647004
1.7646861 0.60763013 7.2441087
1.8181535 0.62604046 7.2236123
1.8713746 0.64436591 7.2032104
1.8681923 0.64327019 7.1764216
1.8650074 0.64217359 7.1496115
1.9180409 0.66043442 7.1294103
1.9708308 0.67861146 7.1093016
1.9677002 0.67753351 7.0825772
2.0202765 0.69563699 7.062614
2.0171716 0.69456786 7.0359216
2.0695355 0.7125982 7.0161028
2.1216605 0.7305463 6.9963746
2.1186087 0.72949547 6.9697666
2.1705239 0.74737126 6.950181
2.1674969 0.74632907 6.9236054
2.2192037 0.7641331 6.9041615
2.2162018 0.76309943 6.8776174
2.2677009 0.78083205 6.858314
2.2647238 0.77980697 6.8318019
2.3160169 0.79746854 6.8126383
2.3130643 0.79645187 6.7861576
2.3641522 0.81404287 6.7671332
2.0879567 0.71894115 6.702527
2.1401479 0.73691207 6.6834745
2.1921012 0.75480098 6.6645088
2.5046301 0.86241329 6.6052775
2.5017719 0.86142915 6.5789022
2.5520773 0.87875074 6.5604768
2.549243 0.87777478 6.534133
2.5464065 0.87679809 6.5077686
2.5965385 0.8940599 6.4895296
2.5937257 0.89309138 6.4631968
2.5909107 0.89212203 6.4368434
2.6408699 0.90932441 6.4187894
2.6380782 0.90836316 6.3924675
2.6352844 0.90740126 6.3661256
2.6850717 0.92454433 6.3482556
2.6823015 0.92359042 6.3219452
2.679529 0.92263579 6.2956138
2.7291451 0.93971997 6.2779274
2.7263958 0.93877333 6.2516279
2.7758162 0.95579016 6.2340717
2.7730901 0.95485145 6.2078037
2.7703619 0.95391208 6.1815152
2.8196127 0.97087049 6.1641407
2.8169074 0.96993905 6.1378837
2.8659647 0.98683077 6.1206379
2.8632824 0.9859072 6.0944118
2.912147 1.0027326 6.0772939
2.9094872 1.0018169 6.0510998
2.9068255 1.0009003 6.0248852
2.9041619 0.99998313 5.9986506
2.9528842 1.0167596 5.9817629
2.950243 1.0158502 5.9555593
2.9475999 1.01494 5.9293361
2.9449546 1.0140291 5.9030924
2.993535 1.0307568 5.8864336
2.9909124 1.0298537 5.8602219
2.9882874 1.0289499 5.8339896
2.9856608 1.0280454 5.8077374
3.0341001 1.0447245 5.7913065
3.0314956 1.0438277 5.7650857
3.0288892 1.0429301 5.7388449
3.0771635 1.0595523 5.7225895
3.0745792 1.0586625 5.6963801
3.0719931 1.057772 5.6701508
3.0694048 1.0568808 5.6439013
3.0668147 1.055989 5.6176314
3.1149728 1.0725712 5.6016545
3.1124048 1.071687 5.5754166
3.1098349 1.070802 5.5491586
3.1072628 1.0699165 5.5228801
3.1046891 1.0690302 5.496582
3.1527314 1.0855725 5.4808822
3.1501796 1.0846938 5.4546156
3.1476259 1.0838145 5.428329
3.1450701 1.0829345 5.4020224
3.1425123 1.0820538 5.3756952
3.1904392 1.0985564 5.3602719
3.1879036 1.0976832 5.3339772
3.1853659 1.0968095 5.307662
3.1828263 1.095935 5.2813268
3.1802847 1.0950599 5.2549715
3.1777413 1.094184 5.2285957
3.1751959 1.0933076 5.2021999
3.1726487 1.0924305 5.1757841
3.2205319 1.1089181 5.1607938
3.2180064 1.1080484 5.1344099
3.2154791 1.1071782 5.108006
3.2129498 1.1063074 5.0815821
3.260694 1.1227469 5.0668144
3.2581866 1.1218836 5.0404229
3.2556772 1.1210196 5.0140109
3.2531662 1.1201549 4.9875784
3.250653 1.1192895 4.9611263
3.0423179 1.047554 4.8593187
3.0396938 1.0466505 4.832509
3.4891205 1.2014005 4.9154859
3.4867239 1.2005754 4.8892941
3.2833054 1.1305327 4.7878103
3.2808027 1.129671 4.7612691
3.3283882 1.1460559 4.7472086
3.3259072 1.1452017 4.7207003
3.3234241 1.1443467 4.694171
3.3209393 1.1434911 4.6676221
3.3184526 1.1426349 4.6410522
3.315964 1.141778 4.6144624
3.3134735 1.1409204 4.5878525
3.310981 1.1400622 4.5612216
3.3084867 1.1392033 4.5345707
3.3059902 1.1383438 4.5078993
3.3034921 1.1374836 4.4812074
3.300992 1.1366227 4.4544954
3.3486285 1.1530253 4.441083
3.3461502 1.152172 4.4144039
3.3436701 1.151318 4.3877044
3.341188 1.1504633 4.3609843
3.3387041 1.149608 4.3342443
3.3362181 1.148752 4.3074832
3.3337305 1.1478955 4.2807016
3.3312407 1.1470381 4.2539001
3.3287489 1.1461803 4.2270775
3.3262556 1.1453216 4.2002344
3.32376 1.1444623 4.1733704
3.3212628 1.1436025 4.1464863
3.3187635 1.1427419 4.1195812
3.3162622 1.1418806 4.0926552
3.3137591 1.1410187 4.0657091
3.311254 1.1401563 4.0387416
3.3087471 1.1392931 4.011754
3.3062382 1.1384292 3.984745
3.3540688 1.1548985 3.9723144
3.3515821 1.1540422 3.9453399
3.3490932 1.1531852 3.9183447
3.3466024 1.1523277 3.8913286
3.3441098 1.1514693 3.8642919
3.3416152 1.1506104 3.8372343
3.2886217 1.1323633 3.7951
3.2860973 1.131494 3.7679241
3.283571 1.1306242 3.7407274
3.2810426 1.1297536 3.7135093
3.2785122 1.1288823 3.6862705
3.27598 1.1280104 3.6590104
3.2734458 1.1271378 3.6317294
3.2709095 1.1262646 3.6044271
3.2683716 1.1253905 3.5771036
3.2658315 1.1245159 3.5497591
3.2632895 1.1236407 3.5223932
3.3115301 1.1402513 3.5109105
3.3090105 1.1393837 3.4835801
3.2556512 1.1210107 3.4401686
3.2531013 1.1201326 3.4127176
3.2505493 1.1192539 3.3852456
3.2479954 1.1183746 3.3577521
3.2454395 1.1174945 3.3302372
3.2428815 1.1166137 3.302701
3.2403216 1.1157323 3.2751431
3.2377598 1.1148502 3.2475641
3.2351959 1.1139673 3.2199636
3.23263 1.1130838 3.1923413
3.2300622 1.1121997 3.1646979
3.2274923 1.1113148 3.1370327
3.2249205 1.1104292 3.1093459
3.2223465 1.1095428 3.0816376
3.2197707 1.1086559 3.0539076
3.1656861 1.0900332 3.0088215
3.1630793 1.0891355 2.9809678
3.1604702 1.0882372 2.9530926
3.1578593 1.0873382 2.9251952
3.1552463 1.0864384 2.8972762
3.152631 1.0855379 2.8693352
3.1500139 1.0846368 2.8413723
3.2505143 1.1192418 2.8490913
3.1964967 1.1006421 2.8033607
3.1939006 1.0997483 2.7754133
3.0874712 1.0631016 2.7110612
3.0848165 1.0621874 2.6829064
3.0821593 1.0612726 2.6547291
3.0795002 1.060357 2.6265299
3.0243962 1.0413831 2.5796409
3.0217049 1.0404565 2.5513141
3.0190117 1.0395291 2.5229647
3.0163162 1.0386009 2.4945931
2.9607818 1.0194789 2.4470968
2.9580538 1.0185397 2.4185963
2.9553237 1.0175996 2.3900728
2.9525912 1.0166587 2.361527
2.8966212 0.99738669 2.3134148
2.8403037 0.97799492 2.2650037
2.837507 0.97703201 2.2362189
2.8347082 0.97606838 2.2074108
2.8319073 0.97510391 2.1785798
2.8291042 0.97413868 2.1497257
2.8262987 0.97317266 2.1208484
2.8234909 0.97220588 2.0919478
2.766633 0.95262814 2.042577
2.7637913 0.95164967 2.0135431
2.7609472 0.95067042 1.9844859
2.758101 0.94969034 1.9554051
2.7007906 0.92995685 1.9053913
2.6431198 0.91009909 1.8550628
2.6402066 0.90909606 1.8257347
2.5821388 0.88910168 1.7749752
2.5791905 0.8880865 1.74551
2.5762396 0.88707048 1.7160206
2.5177374 0.86692655 1.6647109
2.458863 0.84665447 1.6130749
2.455843 0.84561461 1.5833316
2.396559 0.82520145 1.5312496
2.2799716 0.78505719 1.4561771
2.1619747 0.74442756 1.380197
1.9839272 0.68312091 1.2797966
1.8623288 0.64125121 1.2015847
1.8589625 0.64009213 1.1707419
1.6753691 0.57687587 1.0668638
1.2387307 0.42652917 0.85958225
1.107852 0.38146403 0.77577752
0.97529656 0.33582154 0.69089919
0.97139072 0.33447665 0.65847462
0.96748149 0.3331306 0.62602139
1.0282466 0.35405374 0.62029135
1.0887043 0.37487096 0.61459029
1.0848647 0.3735489 0.58226782
1.1450533 0.39427346 0.5766747
1.2049387 0.41489366 0.57110977
1.2011676 0.41359514 0.53891701
1.2607875 0.43412393 0.53345853
1.3827983 0.47613561 0.55458182
1.3791326 0.47487345 0.52262348
1.4378624 0.49509573 0.51724648
1.6193618 0.55759096 0.56455034
1.6768686 0.57739216 0.55912757
1.7340921 0.59709579 0.5537315
1.7306325 0.59590459 0.5222587
1.8476983 0.63621354 0.5430187
1.9040849 0.65562904 0.53770155
1.9601967 0.67494982 0.53241032
2.0160356 0.69417667 0.52714485
2.0716033 0.71331024 0.52190489
2.1269023 0.73235118 0.51669031
2.1819341 0.75130016 0.5115009
2.236701 0.77015787 0.50633651
2.3485582 0.80867338 0.52672309
2.4025111 0.82725096 0.5215615
2.456207 0.8457399 0.51642454
2.5096474 0.86414087 0.51131195
0.28442061 0.10352064 7.8408008
0.28036761 0.10204547 7.812449
0.27631116 0.10056904 7.7840729
0.33649799 0.12247526 7.760931
0.39638972 0.14427407 7.7379026
0.39240086 0.14282224 7.7096219
0.45203474 0.16452719 7.6867657
0.51137757 0.1861262 7.664021
0.63304877 0.2304109 7.6469073
0.69149709 0.25168437 7.624434
1.1107301 0.40427268 7.6076908
1.1071582 0.40297261 7.5802217
1.1035832 0.40167144 7.5527301
1.1597333 0.42210841 7.5309343
1.1561871 0.4208177 7.5034761
1.2121028 0.44116932 7.4818397
1.2677542 0.46142477 7.4603057
1.2642676 0.46015576 7.4329371
1.3196876 0.48032698 7.4115605
1.3748468 0.50040329 7.3902845
1.4297471 0.52038538 7.3691082
1.5421129 0.56128317 7.3541446
1.6533438 0.60176796 7.3393321
1.650071 0.6005767 7.3123708
1.7036746 0.62008679 7.2916293
1.75703 0.63950664 7.2709837
1.7538127 0.63833565 7.2441087
1.8069507 0.65767628 7.2236123
1.8598439 0.6769278 7.2032104
1.8566811 0.67577666 7.1764216
1.9093595 0.69494998 7.156167
1.9062226 0.69380826 7.1294103
1.9586872 0.71290386 7.1093016
1.9555759 0.71177143 7.0825772
2.0078282 0.73078972 7.062614
2.0598419 0.74972111 7.0427423
2.0567837 0.74860805 7.0161028
2.1085875 0.76746309 6.9963746
2.1055546 0.76635915 6.9697666
2.1571498 0.78513831 6.950181
2.1541417 0.78404343 6.9236054
2.2055297 0.80274713 6.9041615
2.2025464 0.80166131 6.8776174
2.2537282 0.82028997 6.858314
2.2507694 0.81921303 6.8318019
2.3017464 0.83776712 6.8126383
2.2988119 0.83669913 6.7861576
2.3495851 0.85517907 6.7671332
2.3466752 0.85411984 6.7406845
2.3972456 0.87252605 6.7217979
2.3943596 0.87147564 6.6953802
2.4447289 0.88980854 6.676631
2.4418666 0.88876683 6.6502452
2.224035 0.80948251 6.592248
2.2210526 0.80839711 6.5655255
2.2722983 0.82704902 6.5468917
2.5363524 0.9231568 6.5604768
2.5335355 0.92213154 6.534133
2.583333 0.9402563 6.5158415
2.5805395 0.93923956 6.4895296
2.577744 0.93822211 6.4631968
2.6273699 0.9562844 6.4450908
2.6245975 0.95527542 6.4187894
2.6218233 0.95426565 6.3924675
2.6712782 0.97226578 6.3745461
2.6685274 0.97126448 6.3482556
2.6657741 0.97026241 6.3219452
2.715059 0.98820066 6.3042068
2.7123289 0.987207 6.2779274
2.7095966 0.98621255 6.2516279
2.7587125 1.0040892 6.2340717
2.7560031 1.0031031 6.2078037
2.7532918 1.0021163 6.1815152
2.8022392 1.0199317 6.1641407
2.7995508 1.0189531 6.1378837
2.8483057 1.0366985 6.1206379
2.8456397 1.0357282 6.0944118
2.8942034 1.0534039 6.0772939
2.8915601 1.0524418 6.0510998
2.8889148 1.051479 6.0248852
2.9373126 1.0690943 6.0079455
2.9346895 1.0681397 5.9817629
2.9320648 1.0671842 5.9555593
2.9294376 1.0662282 5.9293361
2.9776947 1.0837922 5.9126258
2.97509 1.0828443 5.8864336
2.9724834 1.0818955 5.8602219
2.9698749 1.080946 5.8339896
2.9672642 1.0799959 5.8077374
3.0154049 1.0975176 5.7913065
3.0128167 1.0965755 5.7650857
3.0102262 1.0956327 5.7388449
3.058203 1.1130949 5.7225895
3.0556347 1.1121601 5.6963801
3.0530643 1.1112245 5.6701508
3.100878 1.1286273 5.6540704
3.0983298 1.1276999 5.6278725
3.0957794 1.1267716 5.6016545
3.0932274 1.1258427 5.5754166
3.0906732 1.1249131 5.5491586
3.0881171 1.1239827 5.5228801
3.1358397 1.1413523 5.5071287
3.1333055 1.14043 5.4808822
3.1307693 1.1395068 5.4546156
3.1282313 1.1385831 5.428329
3.1256912 1.1376586 5.4020224
3.1732991 1.1549864 5.3865471
3.1707809 1.1540699 5.3602719
3.1682608 1.1531527 5.3339772
3.1657388 1.1522347 5.307662
3.1632149 1.151316 5.2813268
3.1606891 1.1503967 5.2549715
3.1581612 1.1494766 5.2285957
3.2057021 1.1667801 5.213501
3.203196 1.165868 5.1871572
3.2006881 1.1649551 5.1607938
3.1981783 1.1640416 5.1344099
3.1956666 1.1631274 5.108006
3.2430928 1.1803893 5.0931864
3.2406027 1.1794829 5.0668144
3.2381108 1.178576 5.0404229
3.2356169 1.1776682 5.0140109
3.2331212 1.1767598 4.9875784
3.2306235 1.1758509 4.9611263
3.2779593 1.1930796 4.9466333
3.2754834 1.1921785 4.9202137
3.2730055 1.1912766 4.8937731
3.2705257 1.190374 4.8673129
3.268044 1.1894708 4.8408322
3.0589619 1.1133711 4.7109056
3.3004768 1.2012753 4.6676221
3.2980056 1.2003758 4.6410522
3.2955322 1.1994756 4.6144624
3.293057 1.1985747 4.5878525
3.2905798 1.1976731 4.5612216
3.288101 1.1967708 4.5345707
3.28562 1.1958679 4.5078993
3.3329158 1.2130822 4.4943795
3.3304565 1.2121871 4.4677415
3.3279955 1.2112913 4.441083
3.3255324 1.2103949 4.4144039
3.3230674 1.2094977 4.3877044
3.3206007 1.2085998 4.3609843
3.3181322 1.2077013 4.3342443
3.3156614 1.2068021 4.3074832
3.313189 1.2059022 4.2807016
3.3107147 1.2050016 4.2539001
3.3082385 1.2041004 4.2270775
3.3057604 1.2031983 4.2002344
3.3032804 1.2022957 4.1733704
3.3506503 1.2195369 4.1605568
3.348192 1.2186422 4.1337271
3.3457317 1.2177467 4.1068764
3.3432696 1.2168506 4.0800052
3.3408055 1.2159538 4.0531135
3.3383398 1.2150563 4.0262012
3.3358719 1.2141581 3.9992681
3.3334022 1.2132592 3.9723144
3.3309307 1.2123597 3.9453399
3.3284571 1.2114594 3.9183447
3.3259819 1.2105584 3.8913286
3.3235047 1.2096567 3.8642919
3.3210254 1.2087544 3.8372343
3.3185444 1.2078513 3.8101559
3.3160613 1.2069476 3.7830565
3.3135765 1.2060431 3.7559364
3.3110895 1.2051381 3.7287953
3.3086009 1.2042322 3.7016332
3.3061101 1.2033256 3.6744502
3.3036175 1.2024184 3.6472461
3.3011229 1.2015105 3.6200211
3.2986267 1.2006019 3.5927751
3.2961283 1.1996925 3.5655081
3.293628 1.1987826 3.5382199
3.2911255 1.1978718 3.5109105
3.2886214 1.1969603 3.4835801
3.2861154 1.1960481 3.4562287
3.2330568 1.1767365 3.4127176
3.2305207 1.1758133 3.3852456
3.2279825 1.1748896 3.3577521
3.2254422 1.173965 3.3302372
3.2229002 1.1730397 3.302701
3.220356 1.1721138 3.2751431
3.2178099 1.171187 3.2475641
3.2152619 1.1702596 3.2199636
3.2127118 1.1693314 3.1923413
3.2101598 1.1684026 3.1646979
3.2076056 1.167473 3.1370327
3.2050495 1.1665426 3.1093459
3.2024915 1.1656116 3.0816376
3.1999316 1.1646799 3.0539076
3.1973696 1.1637473 3.0261559
3.1435895 1.144173 2.9809678
3.1409967 1.1432292 2.9530926
3.1384017 1.1422848 2.9251952
3.1358047 1.1413395 2.8972762
3.1332057 1.1403936 2.8693352
3.1306047 1.139447 2.8413723
3.1280017 1.1384995 2.8133874
3.1253965 1.1375513 2.7853806
3.1227894 1.1366024 2.7573516
3.0684474 1.1168236 2.7110612
3.0658088 1.1158632 2.6829064
3.0030863 1.093034 2.5513141
3.0004096 1.0920597 2.5229647
2.9977307 1.0910847 2.4945931
2.9950497 1.0901089 2.4661989
2.9923666 1.0891323 2.4377823
2.937114 1.0690221 2.3900728
2.9343984 1.0680337 2.361527
2.8787732 1.0477878 2.3134148
2.876025 1.0467875 2.2847383
2.8200233 1.0264045 2.2362189
2.8172419 1.0253922 2.2074108
2.8144581 1.024379 2.1785798
2.8116722 1.023365 2.1497257
2.8088839 1.0223502 2.1208484
2.8060935 1.0213345 2.0919478
2.7495859 1.0007675 2.042577
2.7467618 0.99973953 2.0135431
2.7439353 0.99871081 1.9844859
2.7411067 0.9976812 1.9554051
2.6841495 0.97695047 1.9053913
2.6268337 0.95608932 1.8550628
2.6239386 0.95503557 1.8257347
2.6210411 0.95398092 1.7963828
2.5632982 0.93296432 1.74551
2.5051897 0.91181445 1.6943146
2.502224 0.91073507 1.6647109
2.4992561 0.9096548 1.6350831
2.3286326 0.84755296 1.5387633
2.3255656 0.84643668 1.5088112
2.2659233 0.82472861 1.4561771
2.2058964 0.80288064 1.403204
1.9131169 0.69631761 1.2561665
1.791561 0.65207487 1.1775852
1.7881807 0.65084457 1.1466438
1.7250941 0.6278829 1.0913402
1.2936801 0.47086105 0.88518077
1.1010258 0.40074062 0.77577752
0.9692871 0.35279167 0.69089919
0.9654054 0.35137883 0.65847462
0.9615202 0.34996474 0.62602139
1.021911 0.37194517 0.62029135
1.0180589 0.37054312 0.58788937
1.0781802 0.39242548 0.58226782
1.1379979 0.41419736 0.5766747
1.1975142 0.43585953 0.57110977
1.2567315 0.45741287 0.56557274
1.315652 0.47885817 0.56006354
1.3742779 0.50019628 0.55458182
1.3706349 0.49887031 0.52262348
1.5519478 0.56486285 0.57000005
1.6093838 0.58576781 0.56455034
1.6058794 0.58449233 0.53292644
1.7234073 0.62726897 0.5537315
1.779999 0.64786667 0.54836196
1.8363135 0.66836345 0.5430187
1.8923527 0.68876004 0.53770155
1.9481187 0.70905721 0.53241032
2.0036135 0.72925562 0.52714485
2.0588388 0.74935609 0.52190489
2.1137969 0.76935917 0.51669031
2.1684899 0.78926575 0.5115009
2.2802088 0.82992816 0.53190953
2.3340871 0.84953821 0.52672309
2.3877077 0.86905456 0.5215615
2.4410727 0.8884778 0.51642454
2.4941838 0.9078086 0.51131195
2.5470426 0.92704773 0.50622368
2.5996513 0.94619572 0.50115949
3.2707813 1.2555352 10.48746
3.2684619 1.254645 10.464494
3.2661409 1.253754 10.441511
0.21848899 0.083870068 7.8357649
0.21442322 0.082309365 7.8073287
0.33830392 0.12986271 7.789247
0.33430925 0.12832931 7.760931
0.39381143 0.15117005 7.7379026
0.3898485 0.14964882 7.7096219
0.4490945 0.17239124 7.6867657
0.50805134 0.19502263 7.664021
0.62893111 0.24142404 7.6469073
0.74854189 0.28733829 7.6299734
0.74478686 0.2858969 7.6020694
1.1035054 0.42359602 7.6076908
1.0999566 0.42223379 7.5802217
1.096405 0.42087045 7.5527301
1.1521899 0.44228426 7.5309343
1.1486667 0.44093186 7.5034761
1.2042186 0.46225622 7.4818397
1.2595081 0.48347986 7.4603057
1.2560441 0.4821502 7.4329371
1.3111037 0.50328553 7.4115605
1.3076677 0.5019666 7.3842249
1.4204473 0.54525864 7.3691082
1.4747351 0.5660978 7.348031
1.6425897 0.63053113 7.3393321
1.6393381 0.62928295 7.3123708
1.692593 0.64972562 7.2916293
1.7456015 0.67007363 7.2709837
1.7424051 0.66884667 7.2441087
1.7951974 0.68911171 7.2236123
1.8477465 0.70928341 7.2032104
1.8446044 0.70807731 7.1764216
1.8969401 0.72816706 7.156167
1.8938236 0.72697079 7.1294103
1.9459471 0.74697906 7.1093016
1.942856 0.74579257 7.0825772
1.9947685 0.76571989 7.062614
2.0464437 0.78555614 7.0427423
2.0434055 0.78438985 7.0161028
2.0948722 0.80414611 6.9963746
2.0918591 0.80298942 6.9697666
2.1431186 0.82266617 6.950181
2.14013 0.82151896 6.9236054
2.1911838 0.84111667 6.9041615
2.1882198 0.83997893 6.8776174
2.239069 0.85949802 6.858314
2.2361293 0.85836965 6.8318019
2.2867746 0.87781054 6.8126383
2.2838595 0.87669152 6.7861576
2.3343024 0.89605474 6.7671332
2.3845179 0.91533065 6.7481947
2.3816528 0.91423088 6.7217979
2.3787856 0.91313022 6.6953802
2.428827 0.93233937 6.676631
2.4259837 0.93124789 6.6502452
2.4758263 0.95038068 6.6316319
2.4730065 0.9492982 6.6052775
2.4701843 0.94821495 6.5789022
2.5198548 0.96728164 6.5604768
2.5170562 0.96620739 6.534133
2.5665298 0.98519844 6.5158415
2.5637546 0.98413318 6.4895296
2.5609772 0.98306704 6.4631968
2.6102803 1.0019927 6.4450908
2.6075261 1.0009354 6.4187894
2.6047697 0.99987745 6.3924675
2.653903 1.0187379 6.3745461
2.65117 1.0176888 6.3482556
2.6484346 1.0166388 6.3219452
2.6456971 1.0155879 6.2956138
2.6946867 1.0343933 6.2779274
2.6919723 1.0333513 6.2516279
2.6892557 1.0323085 6.2253079
2.7380769 1.0510492 6.2078037
2.7353833 1.0500152 6.1815152
2.7840121 1.0686822 6.1641407
2.7813411 1.0676569 6.1378837
2.7786679 1.0666307 6.1116061
2.8271306 1.0852337 6.0944118
2.8753781 1.1037543 6.0772939
2.872752 1.1027462 6.0510998
2.8701239 1.1017374 6.0248852
2.9182069 1.1201947 6.0079455
2.915601 1.1191944 5.9817629
2.9129932 1.1181933 5.9555593
2.9103832 1.1171914 5.9293361
2.9077713 1.1161889 5.9030924
2.9557388 1.1346018 5.8864336
2.9531491 1.1336077 5.8602219
2.9505572 1.1326128 5.8339896
2.9479637 1.1316172 5.8077374
2.9957914 1.1499766 5.7913065
2.9932199 1.1489894 5.7650857
2.9906464 1.1480016 5.7388449
3.038311 1.1662984 5.7225895
3.0357594 1.1653188 5.6963801
3.033206 1.1643387 5.6701508
3.0807085 1.1825732 5.6540704
3.0781767 1.1816014 5.6278725
3.0756431 1.1806288 5.6016545
3.0731075 1.1796554 5.5754166
3.07057 1.1786814 5.5491586
3.0680306 1.1777066 5.5228801
3.0654891 1.176731 5.496582
3.1129251 1.19494 5.4808822
3.1104054 1.1939727 5.4546156
3.1078839 1.1930048 5.428329
3.1053603 1.1920362 5.4020224
3.1028349 1.1910667 5.3756952
3.1501567 1.2092319 5.3602719
3.1476531 1.2082708 5.3339772
3.1451473 1.207309 5.307662
3.1426399 1.2063464 5.2813268
3.1401305 1.2053832 5.2549715
3.137619 1.2044191 5.2285957
3.1351058 1.2034544 5.2021999
3.1823609 1.2215939 5.1871572
3.1798694 1.2206374 5.1607938
3.1773758 1.2196803 5.1344099
3.1748803 1.2187223 5.108006
3.1723831 1.2177638 5.0815821
3.1698837 1.2168044 5.0551376
3.2170486 1.2349093 5.0404229
3.214571 1.2339582 5.0140109
3.2120914 1.2330064 4.9875784
3.0090809 1.1550779 4.9128757
3.006494 1.1540849 4.8861074
3.0039053 1.1530912 4.8593187
3.0013146 1.1520967 4.832509
2.9987218 1.1511015 4.8056788
0.85303438 0.32744923 4.2487035
3.2443197 1.2453777 4.8143315
3.2418504 1.2444297 4.7878103
3.2393792 1.2434812 4.7612691
3.2863638 1.2615169 4.7472086
3.2839141 1.2605765 4.7207003
3.2814624 1.2596354 4.694171
3.2790091 1.2586937 4.6676221
3.2765536 1.2577511 4.6410522
3.2740965 1.2568079 4.6144624
3.2716374 1.2558639 4.5878525
3.2691765 1.2549193 4.5612216
3.2667136 1.2539738 4.5345707
3.2642488 1.2530277 4.5078993
3.3112369 1.2710648 4.4943795
3.3087938 1.2701269 4.4677415
3.3063486 1.2691883 4.441083
3.3039017 1.268249 4.4144039
3.3014529 1.267309 4.3877044
3.2990019 1.2663683 4.3609843
3.2965493 1.2654268 4.3342443
3.294095 1.2644845 4.3074832
3.2916386 1.2635417 4.2807016
3.2891803 1.262598 4.2539001
3.2867203 1.2616537 4.2270775
3.2842581 1.2607086 4.2002344
3.2817943 1.2597628 4.1733704
3.2793283 1.2588162 4.1464863
3.2768607 1.257869 4.1195812
3.3239696 1.2759523 4.1068764
3.3215234 1.2750133 4.0800052
3.3190753 1.2740737 4.0531135
3.3166256 1.2731333 4.0262012
3.3141739 1.2721921 3.9992681
3.3117204 1.2712504 3.9723144
3.3092649 1.2703078 3.9453399
3.3068075 1.2693645 3.9183447
3.3043482 1.2684205 3.8913286
3.301887 1.2674756 3.8642919
3.2994239 1.2665302 3.8372343
3.2969589 1.265584 3.8101559
3.294492 1.264637 3.7830565
3.2920234 1.2636894 3.7559364
3.2895527 1.262741 3.7287953
3.28708 1.2617918 3.7016332
3.2846057 1.260842 3.6744502
3.2821293 1.2598914 3.6472461
3.2796509 1.2589401 3.6200211
3.2771707 1.257988 3.5927751
3.2746887 1.2570351 3.5655081
3.2722046 1.2560817 3.5382199
3.2697186 1.2551274 3.5109105
3.2672307 1.2541723 3.4835801
3.2647409 1.2532166 3.4562287
3.2622492 1.2522601 3.4288559
3.2095079 1.2320147 3.3852456
3.2069862 1.2310467 3.3577521
3.2044625 1.2300779 3.3302372
3.201937 1.2291085 3.302701
3.1994092 1.2281382 3.2751431
3.1968799 1.2271671 3.2475641
3.1943483 1.2261955 3.2199636
3.1918149 1.2252229 3.1923413
3.1892793 1.2242496 3.1646979
3.1867418 1.2232757 3.1370327
3.1842024 1.2223008 3.1093459
3.1816611 1.2213253 3.0816376
3.1791177 1.220349 3.0539076
3.1765723 1.2193719 3.0261559
3.123142 1.198862 2.9809678
3.1205661 1.1978731 2.9530926
2.911516 1.1176262 2.853951
2.9088264 1.1165938 2.8257046
2.9061348 1.1155607 2.7974358
2.4215269 0.92953712 2.6008303
2.4185686 0.92840147 2.5717483
2.4156077 0.92726493 2.5426424
3.0511081 1.1712108 2.7391939
3.0484889 1.1702052 2.7110612
3.0458674 1.169199 2.6829064
3.0432439 1.1681919 2.6547291
3.0406184 1.167184 2.6265299
3.0379906 1.1661754 2.5983083
2.9835529 1.1452787 2.5513141
2.9808936 1.1442578 2.5229647
2.9782321 1.1432362 2.4945931
2.9755685 1.1422137 2.4661989
2.9207053 1.1211537 2.4185963
2.9180095 1.120119 2.3900728
2.9153118 1.1190833 2.361527
2.8600485 1.0978698 2.3134148
2.8044417 1.0765244 2.2650037
2.8016806 1.0754644 2.2362189
2.7989173 1.0744036 2.2074108
2.7961516 1.0733421 2.1785798
2.7933838 1.0722796 2.1497257
2.7906137 1.0712162 2.1208484
2.7878413 1.070152 2.0919478
2.7850668 1.069087 2.0630243
2.7288957 1.0475248 2.0135431
2.7260876 1.0464469 1.9844859
2.7232773 1.0453682 1.9554051
2.6666903 1.0236466 1.9053913
2.6097476 1.0017883 1.8550628
2.6068714 1.0006841 1.8257347
2.6039927 0.99957913 1.7963828
2.5466254 0.97755796 1.74551
2.5437119 0.97643954 1.7160206
2.4859483 0.95426619 1.6647109
2.4829998 0.9531343 1.6350831
2.3693156 0.909495 1.5611093
2.3663001 0.90833747 1.5312496
2.2511845 0.8641488 1.4561771
2.1915483 0.84125656 1.403204
1.9588782 0.75194287 1.2797966
1.8388149 0.70585489 1.2015847
1.7765496 0.68195349 1.1466438
1.6542158 0.63499397 1.0668638
1.4085267 0.54068273 0.9359296
1.0305387 0.39558673 0.74961436
0.89885855 0.34503946 0.66431403
0.95912594 0.36817396 0.65847462
0.95526606 0.36669227 0.62602139
1.015264 0.38972333 0.62029135
1.0114369 0.38825426 0.58788937
1.0711672 0.41118255 0.58226782
1.1305958 0.43399507 0.5766747
1.189725 0.45669267 0.57110977
1.1860015 0.45526335 0.53891701
1.3070945 0.50174654 0.56006354
1.3034407 0.50034398 0.52802742
1.4232931 0.54635102 0.54912746
1.5418533 0.59186202 0.57000005
1.5989156 0.61376619 0.56455034
1.6556963 0.6355623 0.55912757
1.7121974 0.657251 0.5537315
1.7684211 0.67883325 0.54836196
1.8243692 0.70030975 0.5430187
1.880044 0.72168124 0.53770155
1.9354472 0.74294859 0.53241032
1.9905809 0.76411241 0.52714485
2.0454471 0.78517359 0.52190489
2.1000478 0.80613285 0.51669031
2.1543849 0.8269909 0.5115009
2.2653773 0.8695969 0.53190953
2.2622757 0.8684063 0.50119692
2.3721769 0.91059345 0.5215615
0.21699198 0.087670453 7.8357649
0.21295406 0.086039029 7.8073287
0.27263305 0.1101509 7.7840729
0.3320187 0.13414426 7.760931
0.39111316 0.15801997 7.7379026
0.38717741 0.15642983 7.7096219
0.44601747 0.18020275 7.6867657
0.50457031 0.20385964 7.664021
0.56283808 0.22740135 7.641387
0.67852658 0.27414253 7.5964484
1.0959445 0.44279033 7.6076908
1.1512848 0.46514928 7.585783
1.1477916 0.46373791 7.5583701
1.202901 0.48600355 7.5366216
1.1994358 0.48460352 7.5092421
1.1959678 0.48320234 7.4818397
1.2508783 0.50538766 7.4603057
1.3055302 0.52746844 7.4388733
1.3021204 0.5260908 7.4115605
1.3565454 0.54807991 7.3902845
1.410715 0.56996584 7.3691082
1.4646308 0.59174925 7.348031
1.6313353 0.6591022 7.3393321
1.628106 0.65779752 7.3123708
1.6809959 0.67916644 7.2916293
1.6777929 0.6778723 7.2647004
1.7304667 0.69915396 7.2441087
1.7828974 0.72033727 7.2236123
1.8350863 0.74142301 7.2032104
1.8319658 0.74016225 7.1764216
1.8288428 0.73890042 7.1496115
1.8808478 0.75991184 7.1294103
1.9326141 0.78082675 7.1093016
1.9295442 0.77958649 7.0825772
1.981101 0.80041677 7.062614
1.9780563 0.79918659 7.0359216
2.0294046 0.81993276 7.0161028
2.080519 0.84058422 6.9963746
2.0775263 0.83937508 6.9697666
2.0745313 0.83816504 6.9431381
1.85288 0.74861211 6.8876352
1.9048971 0.76962835 6.868011
1.9566751 0.79054803 6.8484774
2.2237275 0.89844424 6.858314
2.220808 0.89726472 6.8318019
2.2711065 0.91758657 6.8126383
2.2682111 0.91641682 6.7861576
2.3183086 0.93665743 6.7671332
2.3154371 0.93549734 6.7406845
2.3653345 0.95565718 6.7217979
2.3624871 0.9545067 6.6953802
2.4121857 0.97458625 6.676631
2.4093616 0.9734453 6.6502452
2.4588628 0.99344504 6.6316319
2.4560623 0.99231356 6.6052775
2.4532595 0.99118119 6.5789022
2.5025897 1.0111119 6.5604768
2.4998102 1.0099889 6.534133
2.4970288 1.0088651 6.5077686
2.5461886 1.0287269 6.4895296
2.5434303 1.0276126 6.4631968
2.5406697 1.0264972 6.4368434
2.5896602 1.0462906 6.4187894
2.5869229 1.0451846 6.3924675
2.5841832 1.0440778 6.3661256
2.6330049 1.0638031 6.3482556
2.6302884 1.0627055 6.3219452
2.6275697 1.0616071 6.2956138
2.6248488 1.0605078 6.2692623
2.6735277 1.0801753 6.2516279
2.6708298 1.0790852 6.2253079
2.6681297 1.0779943 6.1989675
2.7166412 1.0975943 6.1815152
2.713964 1.0965126 6.1552062
2.7112844 1.09543 6.1288772
2.7596295 1.1149627 6.1116061
2.7569728 1.1138892 6.0853086
2.8051276 1.1333451 6.0681663
2.8530691 1.1527147 6.0510998
2.8504589 1.1516601 6.0248852
2.8478467 1.1506047 5.9986506
2.8956244 1.1699082 5.9817629
2.8930345 1.1688617 5.9555593
2.8904424 1.1678145 5.9293361
2.8878484 1.1667665 5.9030924
2.8852525 1.1657176 5.8768287
2.8826544 1.164668 5.8505449
2.930341 1.1839347 5.8339896
2.9277651 1.1828939 5.8077374
2.9752653 1.2020853 5.7913065
2.9727113 1.2010534 5.7650857
2.9701555 1.2000207 5.7388449
3.0174935 1.2191465 5.7225895
3.0149596 1.2181227 5.6963801
3.0124235 1.2170981 5.6701508
3.0596006 1.2361588 5.6540704
3.0570862 1.2351429 5.6278725
3.05457 1.2341263 5.6016545
3.0520518 1.2331089 5.5754166
3.0495315 1.2320907 5.5491586
3.0470095 1.2310717 5.5228801
3.0444856 1.230052 5.496582
3.0915964 1.249086 5.4808822
3.0890939 1.248075 5.4546156
3.0865896 1.2470632 5.428329
3.0840836 1.2460506 5.4020224
3.0815754 1.2450373 5.3756952
3.0790653 1.2440232 5.3493481
3.1260865 1.2630209 5.3339772
3.1235979 1.2620155 5.307662
3.1211076 1.2610093 5.2813268
3.1186154 1.2600024 5.2549715
3.1161213 1.2589947 5.2285957
3.113625 1.2579862 5.2021999
3.1111271 1.256977 5.1757841
3.158082 1.2759479 5.1607938
2.9056137 1.1739441 5.0762134
2.9030058 1.1728905 5.0494409
2.9509697 1.1922692 5.0345578
3.1481647 1.2719412 5.0551376
2.945797 1.1901792 4.9810591
2.9432077 1.189133 4.9542785
2.9406164 1.1880862 4.9274769
3.187619 1.2878816 4.9611263
3.1851525 1.2868851 4.9346533
3.1826844 1.285888 4.9081607
3.1802144 1.2848901 4.8816471
3.22699 1.3037885 4.8673129
3.2245412 1.3027992 4.8408322
3.2220907 1.3018092 4.8143315
3.2196383 1.3008183 4.7878103
3.2171841 1.2998267 4.7612691
3.2147279 1.2988343 4.7347074
3.2122698 1.2978412 4.7081251
3.2098098 1.2968473 4.6815224
3.2565424 1.3157285 4.6676221
3.2541039 1.3147433 4.6410522
3.2516634 1.3137573 4.6144624
3.2492213 1.3127706 4.5878525
3.2467771 1.3117831 4.5612216
3.2443311 1.3107948 4.5345707
3.2418833 1.3098059 4.5078993
3.2394335 1.3088161 4.4812074
3.2369819 1.3078256 4.4544954
3.2836947 1.3266988 4.441083
3.2812645 1.3257169 4.4144039
3.2788324 1.3247342 4.3877044
3.2763984 1.3237509 4.3609843
3.2739625 1.3227668 4.3342443
3.2715249 1.3217819 4.3074832
3.2690854 1.3207963 4.2807016
3.266644 1.3198098 4.2539001
3.2642007 1.3188227 4.2270775
3.2617555 1.3178347 4.2002344
3.2593086 1.3168461 4.1733704
3.2568595 1.3158567 4.1464863
3.2544088 1.3148665 4.1195812
3.251956 1.3138756 4.0926552
3.2495015 1.3128839 4.0657091
3.247045 1.3118913 4.0387416
3.2445867 1.3108981 4.011754
3.2421265 1.3099041 3.984745
3.2396643 1.3089093 3.9577155
3.2372003 1.3079138 3.9306653
3.2347343 1.3069174 3.903594
3.2322664 1.3059204 3.8765018
3.2297966 1.3049226 3.8493888
3.227325 1.303924 3.8222549
3.2248514 1.3029245 3.7951
3.2223759 1.3019243 3.7679241
3.2198987 1.3009235 3.7407274
3.2174194 1.2999218 3.7135093
3.2149382 1.2989193 3.6862705
3.212455 1.2979161 3.6590104
3.2099698 1.296912 3.6317294
3.2074828 1.2959071 3.6044271
3.204994 1.2949016 3.5771036
3.2025032 1.2938952 3.5497591
3.2000103 1.292888 3.5223932
3.1975157 1.2918801 3.4950063
3.195019 1.2908715 3.467598
3.1925204 1.2898619 3.4401686
3.1900198 1.2888517 3.4127176
3.1875174 1.2878406 3.3852456
3.1850131 1.2868288 3.3577521
3.1825066 1.2858162 3.3302372
3.1799984 1.2848027 3.302701
3.1774881 1.2837886 3.2751431
3.1749759 1.2827735 3.2475641
3.1724617 1.2817577 3.2199636
3.1699455 1.2807411 3.1923413
3.1674275 1.2797238 3.1646979
3.1649075 1.2787056 3.1370327
3.1623855 1.2776867 3.1093459
3.1598616 1.2766669 3.0816376
3.1068542 1.2552506 3.0366533
3.0966246 1.2511176 2.9251952
3.0940623 1.2500824 2.8972762
3.0914979 1.2490462 2.8693352
3.0889316 1.2480093 2.8413723
3.0353997 1.2263811 2.795393
3.0328023 1.2253318 2.7673044
3.0302031 1.2242815 2.7391939
3.0276017 1.2232305 2.7110612
3.0249982 1.2221786 2.6829064
3.0223927 1.2211258 2.6547291
3.0197849 1.2200724 2.6265299
3.0171754 1.219018 2.5983083
2.9631107 1.1971744 2.5513141
2.9604695 1.1961073 2.5229647
2.9578261 1.1950394 2.4945931
2.9033687 1.1730372 2.4470968
2.9006937 1.1719563 2.4185963
2.8980165 1.1708746 2.3900728
2.8953371 1.1697921 2.361527
2.8404524 1.1476172 2.3134148
2.8377407 1.1465217 2.2847383
2.7824845 1.1241966 2.2362189
2.7797401 1.1230879 2.2074108
2.7769933 1.1219782 2.1785798
2.7742445 1.1208675 2.1497257
2.7714934 1.119756 2.1208484
2.7157691 1.0972419 2.0715876
2.7129846 1.0961169 2.042577
2.7101982 1.0949911 2.0135431
2.7074094 1.0938643 1.9844859
2.6512418 1.0711712 1.9345834
2.5947208 1.0483353 1.8843671
2.5918665 1.0471821 1.8550628
2.5349569 1.024189 1.8044165
2.4776866 1.0010505 1.7534496
2.4747653 0.99987012 1.7238942
2.4718416 0.99868888 1.6943146
2.4141419 0.97537667 1.6427939
2.4111829 0.97418112 1.6130749
2.3530817 0.95070678 1.5611093
