# .PCD v0.7 - Point Cloud Data file format
VERSION 0.7
FIELDS x y z
SIZE 4 4 4
TYPE F F F
COUNT 1 1 1
WIDTH 1648
HEIGHT 1
VIEWPOINT 0 0 0 1 0 0 0
POINTS 1648
DATA ascii
1.72089 -0.55915201 0.49526799
1.72014 -0.55890799 0.45820099
1.71939 -0.55866402 0.42111501
1.79158 -0.58211797 0.40928
1.79084 -0.58187997 0.372262
1.79011 -0.58164197 0.335226
1.78938 -0.58140397 0.298172
1.78864 -0.58116502 0.26109999
1.78791 -0.58092701 0.22401001
1.03598 -0.31672999 11.1521
1.03509 -0.316459 11.119
1.10642 -0.338267 11.0832
1.1055501 -0.33800101 11.0501
1.1765701 -0.35971501 11.0145
1.24728 -0.38133001 10.9791
1.2464401 -0.38107601 10.9461
1.3168401 -0.40259901 10.9109
1.73332 -0.52992898 10.7357
1.73261 -0.52971202 10.7032
1.7319 -0.529495 10.6706
1.93568 -0.59179598 10.569
1.93502 -0.59159398 10.5367
1.93436 -0.59139198 10.5043
1.86535 -0.57029402 10.473
1.85311 -0.566553 9.8863201
1.85243 -0.56634402 9.85359
1.85175 -0.566136 9.8208399
1.85106 -0.56592703 9.7880697
1.8503799 -0.565718 9.75529
1.84969 -0.56550801 9.7224998
1.84901 -0.56529897 9.6896896
1.84833 -0.56509 9.6568604
1.84764 -0.56488103 9.6240196
1.8469599 -0.56467098 9.5911703
1.84627 -0.56446099 9.5583
1.84558 -0.56425202 9.5254097
1.8449 -0.56404197 9.4925098
1.84421 -0.56383198 9.4596004
1.84352 -0.563622 9.4266701
1.91176 -0.58448303 9.3952999
1.84215 -0.56320202 9.3607597
1.84146 -0.56299198 9.3277798
1.84077 -0.56278098 9.2947903
1.84009 -0.56257099 9.2617903
1.8394001 -0.56235999 9.2287703
1.83871 -0.56215 9.1957302
1.83802 -0.561939 9.1626797
1.83733 -0.561728 9.1296101
1.83664 -0.561517 9.09653
1.83595 -0.561306 9.0634403
1.83526 -0.561095 9.0303202
1.8345701 -0.560884 8.9972
1.8338799 -0.56067199 8.9640503
1.2503999 -0.382285 8.2284603
1.24955 -0.38202599 8.1942902
1.2487 -0.381767 8.1601105
1.24786 -0.38150799 8.1259098
1.24701 -0.38124901 8.0916901
1.24616 -0.38099 8.0574503
1.2453099 -0.38073099 8.0232
1.24447 -0.38047099 7.9889302
1.24362 -0.38021201 7.9546499
1.24277 -0.37995201 7.9203501
1.24192 -0.37969199 7.8860402
1.24107 -0.37943199 7.8517098
1.31282 -0.40136999 7.82301
1.31199 -0.401115 7.7887301
1.31116 -0.400861 7.7544398
1.38262 -0.42270899 7.7260199
1.3818001 -0.42245999 7.6917901
1.38099 -0.42221099 7.6575398
1.38018 -0.42196199 7.62327
1.45136 -0.443726 7.5952001
1.45057 -0.443483 7.5609899
1.44977 -0.443239 7.5267601
1.44897 -0.44299501 7.4925199
1.51989 -0.46467701 7.4647899
1.51911 -0.46443799 7.4306002
1.51833 -0.46419999 7.3964
1.5889601 -0.48579299 7.3689499
1.5882 -0.48556 7.3347998
1.58743 -0.48532701 7.3006401
1.58667 -0.48509401 7.2664599
1.58591 -0.48486099 7.2322602
1.58515 -0.48462799 7.19805
1.58438 -0.48439401 7.1638298
1.58362 -0.48416099 7.12959
1.65405 -0.50569302 7.1027598
1.6533 -0.50546497 7.0685802
1.65256 -0.50523698 7.0343699
1.6518101 -0.505009 7.0001602
1.65106 -0.50478101 6.96592
1.6503201 -0.50455201 6.9316702
1.64957 -0.50432301 6.8974099
1.64882 -0.50409502 6.8631201
1.64807 -0.50386602 6.8288298
1.64732 -0.50363702 6.7945099
1.64657 -0.50340801 6.76018
1.64507 -0.50295001 6.6914701
1.64432 -0.50272 6.6570902
1.6435699 -0.502491 6.6227002
1.71394 -0.52400303 6.5970101
1.7132 -0.52377898 6.5626798
1.7124701 -0.52355403 6.5283198
1.64057 -0.50157201 6.4849601
1.63982 -0.501342 6.45049
1.63906 -0.50111198 6.4159899
1.63831 -0.50088203 6.3814902
1.63756 -0.500651 6.3469601
1.6368001 -0.50042099 6.3124199
1.70733 -0.52198303 6.2873998
1.7065901 -0.52175802 6.2529101
1.70586 -0.52153301 6.21841
1.63379 -0.49949801 6.1740999
1.6330301 -0.49926701 6.1394801
1.63227 -0.49903601 6.1048398
1.63152 -0.49880499 6.07019
1.63076 -0.49857399 6.0355201
1.62546 -0.496952 5.7923698
1.6247 -0.496719 5.7575698
1.62394 -0.49648699 5.7227502
1.62318 -0.49625501 5.6879201
1.62242 -0.49602199 5.65307
1.54965 -0.473777 5.6068902
1.54887 -0.47353801 5.5719099
1.54809 -0.473299 5.5369201
1.54731 -0.473061 5.5019102
1.53948 -0.470667 5.1509199
1.5387 -0.47042701 5.1157298
1.53791 -0.47018701 5.0805202
1.53713 -0.46994701 5.04529
1.53634 -0.469706 5.0100498
1.53555 -0.469466 4.9747901
1.53477 -0.46922499 4.9395199
1.53398 -0.46898499 4.9042301
1.53319 -0.46874401 4.8689198
1.5324 -0.468503 4.83359
1.53162 -0.46826199 4.7982502
1.53083 -0.46802101 4.7628899
1.60252 -0.489939 4.7411499
1.60175 -0.489703 4.7058601
1.67312 -0.51152498 4.6842999
1.74417 -0.53324503 4.6628299
1.81488 -0.554865 4.64147
1.88527 -0.57638502 4.6202102
1.88457 -0.57617199 4.5851998
1.88388 -0.57595903 4.55018
1.95398 -0.59739 4.52916
1.9533 -0.59718299 4.4942002
1.95262 -0.59697503 4.4592199
2.0224299 -0.61831897 4.4384499
2.02177 -0.61811602 4.4035301
2.0211101 -0.61791402 4.3685899
1.73387 -0.53009701 4.1690602
1.73313 -0.52987099 4.1336598
1.73239 -0.52964503 4.0982499
1.73165 -0.529419 4.06282
1.80268 -0.551135 4.0427699
1.80196 -0.550915 4.0074
1.80124 -0.55069399 3.9720199
1.87198 -0.57231998 3.95222
1.8712699 -0.57210499 3.9168899
1.8705699 -0.57189 3.8815501
1.8698699 -0.571675 3.84619
1.8691601 -0.57146001 3.8108201
1.93964 -0.59300798 3.79142
1.93896 -0.59279799 3.7560999
1.93827 -0.59258902 3.7207699
1.93758 -0.59237897 3.68543
1.9369 -0.59216797 3.65007
1.93621 -0.59195799 3.6146901
1.9355201 -0.591748 3.5792899
1.93483 -0.59153801 3.54388
1.93414 -0.59132701 3.50845
1.7168 -0.52487898 3.3506999
1.64353 -0.50247902 3.2975299
1.6427701 -0.502244 3.2616301
1.642 -0.50200999 3.2257199
1.71381 -0.523965 3.2074599
1.71307 -0.52373701 3.1716101
1.71232 -0.52350801 3.13574
1.71157 -0.52327901 3.09986
1.71082 -0.52305001 3.0639501
1.78237 -0.54492497 3.0460999
1.7816401 -0.54470199 3.0102601
1.85288 -0.56648099 2.9925799
1.85216 -0.56626302 2.9568
1.85145 -0.566046 2.921
1.85074 -0.56582803 2.88519
1.8500299 -0.56560999 2.84936
1.84931 -0.565391 2.8135099
1.8486 -0.56517297 2.7776501
1.84788 -0.564955 2.74177
1.84717 -0.56473702 2.7058699
1.77432 -0.542463 2.6509099
1.77358 -0.54223901 2.6148801
1.77285 -0.542014 2.57883
1.84431 -0.56386203 2.5621099
1.7713799 -0.541565 2.50669
1.77064 -0.54133999 2.4705901
1.69728 -0.51890999 2.4147301
1.76917 -0.54088998 2.39834
1.69577 -0.518448 2.3422501
1.6950099 -0.51821703 2.30599
1.62117 -0.49564201 2.24947
1.6203901 -0.49540401 2.2130599
1.61962 -0.49516699 2.17665
1.69198 -0.51729101 2.1607399
1.76401 -0.53931099 2.1449201
1.76327 -0.53908497 2.10865
1.83497 -0.56100702 2.0929699
1.90634 -0.58282697 2.0773799
1.90564 -0.58261198 2.04125
1.9766901 -0.60433501 2.02581
1.97601 -0.60412598 1.98974
1.97532 -0.603917 1.95366
1.90283 -0.58175302 1.89657
1.90212 -0.58153802 1.86036
1.90142 -0.58132201 1.8241301
1.90072 -0.58110702 1.7878799
1.9719 -0.60286999 1.773
1.97121 -0.60266 1.73682
1.5244499 -0.46607101 1.16339
1.59771 -0.48846799 1.14975
1.59692 -0.48822701 1.11282
1.59613 -0.487986 1.07587
1.59534 -0.48774499 1.0389
1.59455 -0.48750299 1.00191
1.5196 -0.46458799 0.94101
1.51879 -0.46434 0.90388501
1.51798 -0.46409199 0.866741
1.51717 -0.463844 0.829579
1.5906 -0.48629501 0.81671202
1.58981 -0.48605299 0.77961802
1.66291 -0.508403 0.76689798
1.66214 -0.50816703 0.72987098
1.66137 -0.50793099 0.69282597
1.6605901 -0.50769401 0.65576297
1.73341 -0.52995598 0.64335901
1.73265 -0.52972502 0.606363
1.7319 -0.529495 0.56934899
1.73114 -0.52926397 0.532318
1.73039 -0.52903301 0.49526799
1.80293 -0.55121201 0.48326299
1.8022 -0.55098701 0.44628
1.80146 -0.550762 0.40928
1.80073 -0.55053699 0.372262
1.7999901 -0.55031198 0.335226
1.79925 -0.55008602 0.298172
1.79851 -0.54986101 0.26109999
1.79777 -0.54963499 0.22401001
1.04224 -0.29885799 11.1852
1.04135 -0.29860201 11.1521
1.04046 -0.29834601 11.119
1.11216 -0.31890601 11.0832
1.18353 -0.33937201 11.0475
1.25458 -0.35974401 11.012
1.3253 -0.380025 10.9767
1.32449 -0.37979001 10.9438
1.32367 -0.37955499 10.9109
1.39411 -0.39975399 10.8759
1.81224 -0.51965201 10.7664
1.81155 -0.51945299 10.7339
1.81085 -0.51925403 10.7015
1.8770601 -0.53823799 10.5703
1.87638 -0.53804302 10.5379
1.8757 -0.537848 10.5055
1.87502 -0.53765202 10.473
1.93173 -0.55391502 9.8866901
1.93106 -0.55372399 9.8540297
1.93039 -0.553532 9.8213701
1.9297301 -0.55334002 9.7886801
1.92906 -0.55314797 9.7559795
1.92839 -0.55295599 9.7232704
1.9277101 -0.55276299 9.6905403
1.92704 -0.552571 9.6577902
1.92637 -0.55237901 9.6250401
1.9256999 -0.55218601 9.5922604
1.92503 -0.55199301 9.5594702
1.92436 -0.55180103 9.5266705
1.92369 -0.55160803 9.4938498
1.92301 -0.55141503 9.4610205
1.92234 -0.55122203 9.4281702
1.8523901 -0.53116399 9.3937197
1.8516999 -0.53096598 9.3607597
1.85101 -0.53076798 9.3277798
1.85032 -0.53056997 9.2947903
1.84962 -0.53037101 9.2617903
1.84893 -0.530173 9.2287703
1.84824 -0.52997398 9.1957302
1.84755 -0.52977502 9.1626797
1.91627 -0.54948199 9.1318502
1.91559 -0.54928797 9.0988598
1.91492 -0.54909402 9.0658398
1.91424 -0.54890001 9.0328102
1.91356 -0.548706 8.9997702
1.84338 -0.52858102 8.9640503
1.84269 -0.528382 8.9308996
1.84199 -0.52818298 8.8977203
1.8413 -0.52798301 8.8645401
1.25603 -0.36015999 8.1942902
1.32797 -0.380788 8.1648703
1.25433 -0.35967201 8.1259098
1.2534699 -0.35942799 8.0916901
1.25262 -0.35918301 8.0574503
1.25177 -0.35893899 8.0232
1.2509201 -0.35869399 7.9889302
1.25006 -0.35845 7.9546499
1.24921 -0.35820499 7.9203501
1.24835 -0.35795999 7.8860402
1.2474999 -0.35771501 7.8517098
1.24664 -0.35746899 7.8173599
1.31879 -0.37815699 7.7887301
1.31795 -0.37791699 7.7544398
1.3897901 -0.39851499 7.7260199
1.38897 -0.39827999 7.6917901
1.38815 -0.398045 7.6575398
1.3873301 -0.39781001 7.62327
1.38651 -0.39757499 7.5889902
1.38569 -0.39734 7.5546899
1.45728 -0.41786999 7.5267601
1.45648 -0.41764 7.4925199
1.52777 -0.43808001 7.4647899
1.52698 -0.43785599 7.4306002
1.5262001 -0.43763101 7.3964
1.59719 -0.45798799 7.3689499
1.5964299 -0.45776799 7.3347998
1.59566 -0.45754901 7.3006401
1.5949 -0.45732901 7.2664599
1.59413 -0.457109 7.2322602
1.5933599 -0.456889 7.19805
1.59259 -0.456669 7.1638298
1.66337 -0.476964 7.13693
1.6626199 -0.476749 7.1027598
1.66187 -0.47653401 7.0685802
1.6611201 -0.47631899 7.0343699
1.66037 -0.47610399 7.0001602
1.65962 -0.475889 6.96592
1.65887 -0.47567299 6.9316702
1.65812 -0.475458 6.8974099
1.65737 -0.47524199 6.8631201
1.65661 -0.47502601 6.8288298
1.6558599 -0.47481099 6.7945099
1.65511 -0.47459501 6.76018
1.72576 -0.494854 6.7342
1.7250299 -0.494643 6.6999302
1.72429 -0.49443299 6.6656399
1.72356 -0.49422199 6.63133
1.63159 -0.46785101 5.6879201
1.63083 -0.467632 5.65307
1.55769 -0.446659 5.6068902
1.5569 -0.44643399 5.5719099
1.55612 -0.44620901 5.5369201
1.55533 -0.44598401 5.5019102
1.5545501 -0.445759 5.4668899
1.5537601 -0.44553399 5.43185
1.5529799 -0.445308 5.39679
1.5521899 -0.44508299 5.3617201
1.5513999 -0.444857 5.3266201
1.5506099 -0.44463199 5.2915201
1.54983 -0.444406 5.2563901
1.54904 -0.44418001 5.2212501
1.54825 -0.44395399 5.18609
1.54746 -0.443728 5.1509199
1.54667 -0.443501 5.1157298
1.54588 -0.443275 5.0805202
1.54509 -0.44304901 5.04529
1.5443 -0.44282201 5.0100498
1.54351 -0.44259501 4.9747901
1.54272 -0.44236901 4.9395199
1.54193 -0.44214201 4.9042301
1.54114 -0.44191501 4.8689198
1.61314 -0.46256199 4.8469501
1.61237 -0.46234 4.8116999
1.6116 -0.462118 4.7764401
1.6108201 -0.461896 4.7411499
1.61005 -0.461674 4.7058601
1.6818 -0.48224699 4.6842999
1.7532099 -0.50272399 4.6628299
1.82429 -0.52310699 4.64147
1.89504 -0.54339498 4.6202102
1.96547 -0.56358898 4.59905
1.96479 -0.56339401 4.5641098
1.9641 -0.56319797 4.52916
1.96342 -0.56300199 4.4942002
2.0335801 -0.58311898 4.4733601
2.0329101 -0.582928 4.4384499
2.0322499 -0.58273798 4.4035301
2.03158 -0.58254701 4.3685899
2.03092 -0.58235598 4.3336301
1.74211 -0.49954301 4.1336598
1.74137 -0.49933001 4.0982499
1.74063 -0.49911699 4.06282
1.81203 -0.51959002 4.0427699
1.8113 -0.519382 4.0074
1.81058 -0.51917398 3.9720199
1.80985 -0.51896602 3.93662
1.88097 -0.53935999 3.9168899
1.88026 -0.53915697 3.8815501
1.87956 -0.53895402 3.84619
1.87885 -0.53875202 3.8108201
1.87814 -0.53854901 3.77543
1.87743 -0.53834498 3.74002
1.94832 -0.558671 3.7207699
1.94763 -0.55847299 3.68543
1.9469399 -0.55827498 3.65007
1.9462399 -0.55807698 3.6146901
1.94555 -0.55787802 3.5792899
1.94486 -0.55768001 3.54388
1.65282 -0.473939 3.33341
1.65205 -0.47371799 3.2975299
1.65128 -0.47349799 3.2616301
1.65051 -0.473277 3.2257199
1.64974 -0.47305599 3.18978
1.72194 -0.49375999 3.1716101
1.72119 -0.49354401 3.13574
1.72044 -0.49332801 3.09986
1.71969 -0.49311301 3.0639501
1.79161 -0.51373601 3.0460999
1.79088 -0.51352501 3.0102601
1.79014 -0.51331502 2.9744
1.78941 -0.51310402 2.93853
1.7886699 -0.51289302 2.9026401
1.78794 -0.51268202 2.86673
1.7872 -0.51247102 2.8308001
1.78646 -0.51226002 2.7948599
1.78573 -0.51204902 2.7588899
1.78499 -0.51183802 2.7229199
1.85674 -0.53241301 2.7058699
1.85603 -0.53220701 2.66996
1.70608 -0.48921001 2.4147301
1.70532 -0.48899201 2.3785
1.70456 -0.488774 2.3422501
1.63035 -0.46749699 2.28585
1.62957 -0.467273 2.24947
1.62879 -0.467049 2.2130599
1.70151 -0.487901 2.1970799
1.70075 -0.487683 2.1607399
1.77315 -0.508443 2.1449201
1.77241 -0.50822902 2.10865
1.84448 -0.52889699 2.0929699
1.9162199 -0.54946798 2.0773799
1.91552 -0.54926503 2.04125
1.98694 -0.569745 2.02581
1.98625 -0.56954801 1.98974
1.9855601 -0.56935102 1.95366
1.91269 -0.548455 1.89657
1.91198 -0.54825199 1.86036
1.91128 -0.54804897 1.8241301
1.91057 -0.54784602 1.7878799
1.53316 -0.43962801 1.20039
1.6067801 -0.46073601 1.1866699
1.53154 -0.43916199 1.12637
1.53073 -0.43892899 1.08933
1.6044 -0.46005499 1.07587
1.60361 -0.45982799 1.0389
1.60282 -0.4596 1.00191
1.60202 -0.459373 0.96490997
1.60123 -0.45914501 0.92788798
1.60043 -0.45891699 0.89084703
1.59964 -0.458689 0.85378897
1.59884 -0.45846099 0.81671202
1.59805 -0.458233 0.77961802
1.59725 -0.45800501 0.74250603
1.59646 -0.45777601 0.70537502
1.66998 -0.47885799 0.69282597
1.6691999 -0.478636 0.65576297
1.66842 -0.47841299 0.61868203
1.66765 -0.47819 0.58158302
1.66687 -0.47796601 0.54446602
1.7401201 -0.49897099 0.532318
1.73936 -0.49875301 0.49526799
1.7386 -0.49853501 0.45820099
1.7378401 -0.498317 0.42111501
1.73708 -0.498099 0.38401201
1.73632 -0.497881 0.34689
1.7355601 -0.49766299 0.30974999
1.80858 -0.518601 0.298172
1.80784 -0.51838797 0.26109999
1.80709 -0.51817602 0.22401001
1.11931 -0.299918 11.1493
1.11843 -0.29968199 11.1162
1.11755 -0.299447 11.0832
1.18927 -0.31866401 11.0475
1.2606699 -0.33779401 11.012
1.25982 -0.337569 10.9791
1.25898 -0.33734301 10.9461
1.40168 -0.375579 10.9088
1.82104 -0.48794499 10.7664
1.82034 -0.48775801 10.7339
1.88889 -0.50612801 10.6999
1.8882101 -0.50594503 10.6675
1.88753 -0.50576198 10.6351
1.88548 -0.50521302 10.5379
1.8848 -0.50502998 10.5055
1.88411 -0.50484699 10.473
1.88343 -0.504664 10.4405
1.88275 -0.50448 10.4081
1.87244 -0.50172001 9.9190397
1.94111 -0.520118 9.8866901
1.94043 -0.51993799 9.8540297
1.93976 -0.51975697 9.8213701
1.93909 -0.51957703 9.7886801
1.9384201 -0.51939702 9.7559795
1.93774 -0.519216 9.7232704
1.93707 -0.519036 9.6905403
1.93639 -0.51885498 9.6577902
1.93572 -0.51867503 9.6250401
1.93505 -0.51849401 9.5922604
1.93437 -0.51831299 9.5594702
1.9337 -0.51813197 9.5266705
1.93302 -0.51795101 9.4938498
1.93234 -0.51776999 9.4610205
1.93167 -0.51758897 9.4281702
1.86138 -0.49875501 9.3937197
1.86068 -0.49856901 9.3607597
1.85999 -0.498382 9.3277798
1.85929 -0.49819601 9.2947903
1.8586 -0.49801001 9.2617903
1.8579 -0.49782401 9.2287703
1.85721 -0.497637 9.1957302
1.85651 -0.49745101 9.1626797
1.85581 -0.497264 9.1296101
1.92489 -0.515773 9.0988598
1.92421 -0.51559001 9.0658398
1.92353 -0.51540798 9.0328102
1.92285 -0.51522601 8.9997702
1.92217 -0.51504397 8.9667101
1.85163 -0.496142 8.9308996
1.84953 -0.49557999 8.8313303
1.84883 -0.49539301 8.7981195
1.84813 -0.49520499 8.7648802
1.26127 -0.33795601 8.1601105
1.26041 -0.337726 8.1259098
1.25956 -0.337497 8.0916901
1.2587 -0.33726701 8.0574503
1.25784 -0.33703801 8.0232
1.25699 -0.336808 7.9889302
1.25613 -0.33657801 7.9546499
1.25527 -0.336348 7.9203501
1.25441 -0.33611801 7.8860402
1.32687 -0.355533 7.8572698
1.32603 -0.355308 7.82301
1.3251899 -0.35508299 7.7887301
1.32435 -0.35485801 7.7544398
1.39653 -0.374199 7.7260199
1.39571 -0.37397799 7.6917901
1.3948801 -0.37375799 7.6575398
1.39406 -0.37353799 7.62327
1.39324 -0.373317 7.5889902
1.39241 -0.37309599 7.5546899
1.39159 -0.37287501 7.52037
1.46355 -0.39215699 7.4925199
1.4627399 -0.39194101 7.4582601
1.53439 -0.41113901 7.4306002
1.60571 -0.43024901 7.40308
1.6049401 -0.43004301 7.3689499
1.60417 -0.42983699 7.3347998
1.6034 -0.42963099 7.3006401
1.60263 -0.429425 7.2664599
1.6737 -0.44846699 7.2393498
1.67295 -0.44826499 7.2052202
1.6722 -0.44806299 7.1710801
1.67144 -0.447862 7.13693
1.6706899 -0.44766 7.1027598
1.66994 -0.447458 7.0685802
1.66918 -0.447256 7.0343699
1.66843 -0.447054 7.0001602
1.7393 -0.466043 6.97367
1.73856 -0.465846 6.9395099
1.73782 -0.465648 6.9053302
1.73709 -0.465451 6.87114
1.7363501 -0.465253 6.8369298
1.73561 -0.465056 6.8027
1.6631401 -0.44563699 6.76018
1.66238 -0.445434 6.7258401
1.64793 -0.441562 6.07019
1.6471699 -0.44135699 6.0355201
1.6464 -0.44115201 6.0008302
1.64104 -0.43971601 5.7575698
1.64027 -0.43950999 5.7227502
1.63951 -0.43930501 5.6879201
1.48972 -0.39917001 5.4902701
1.56209 -0.41856101 5.4668899
1.5613 -0.418349 5.43185
1.56051 -0.418138 5.39679
1.55972 -0.41792601 5.3617201
1.55893 -0.417714 5.3266201
1.55814 -0.41750199 5.2915201
1.55735 -0.41729 5.2563901
1.55656 -0.41707799 5.2212501
1.55576 -0.416866 5.18609
1.55497 -0.41665301 5.1509199
1.55418 -0.41644099 5.1157298
1.55338 -0.416228 5.0805202
1.55259 -0.41601601 5.04529
1.5518 -0.41580299 5.0100498
1.551 -0.41558999 4.9747901
1.55021 -0.41537699 4.9395199
1.54941 -0.41516399 4.9042301
1.54862 -0.414951 4.8689198
1.62097 -0.434338 4.8469501
1.54703 -0.41452399 4.7982502
1.6194201 -0.43392199 4.7764401
1.6186399 -0.43371299 4.7411499
1.6907099 -0.453026 4.7195201
1.76246 -0.47224799 4.6979799
1.76171 -0.47205001 4.6628299
1.83314 -0.491189 4.64147
1.90424 -0.51023901 4.6202102
1.97501 -0.52920097 4.59905
1.9743201 -0.52901697 4.5641098
2.04478 -0.54789698 4.5431199
2.0441101 -0.54771799 4.5082502
2.0434501 -0.547539 4.4733601
2.0427799 -0.54736 4.4384499
2.04211 -0.54718101 4.4035301
2.04144 -0.54700202 4.3685899
2.11167 -0.56581903 4.3480701
2.0401001 -0.54664302 4.2986598
1.823 -0.488471 4.1487799
1.82227 -0.488276 4.1134601
1.82155 -0.48808199 4.0781202
1.82082 -0.487887 4.0427699
1.8200901 -0.487692 4.0074
1.81936 -0.48749599 3.9720199
1.81863 -0.48730099 3.93662
1.8901 -0.50645 3.9168899
1.88939 -0.50625998 3.8815501
1.88868 -0.50607002 3.84619
1.88797 -0.50587898 3.8108201
1.8872499 -0.50568801 3.77543
1.8865401 -0.50549799 3.74002
1.88583 -0.50530702 3.7046001
1.95708 -0.52439702 3.68543
1.95638 -0.52421099 3.65007
1.95569 -0.52402502 3.6146901
1.95499 -0.523839 3.5792899
1.9543 -0.52365297 3.54388
1.6600699 -0.444814 3.2975299
1.65929 -0.44460699 3.2616301
1.65852 -0.444399 3.2257199
1.65775 -0.44419199 3.18978
1.65697 -0.443984 3.1538301
1.6562001 -0.44377601 3.1178701
1.72879 -0.463227 3.09986
1.72803 -0.463025 3.0639501
1.72728 -0.46282199 3.0280299
1.79957 -0.48219201 3.0102601
1.79883 -0.481994 2.9744
1.79809 -0.481796 2.93853
1.79735 -0.48159799 2.9026401
1.79661 -0.48140001 2.86673
1.7958699 -0.48120201 2.8308001
1.79513 -0.481004 2.7948599
1.79439 -0.48080599 2.7588899
1.79365 -0.480607 2.7229199
1.79291 -0.480409 2.6869199
1.71436 -0.45936 2.4147301
1.71359 -0.45915601 2.3785
1.7128299 -0.458951 2.3422501
1.63826 -0.438972 2.28585
1.63748 -0.43876201 2.24947
1.6367 -0.43855101 2.2130599
1.63591 -0.43834099 2.17665
1.709 -0.45792601 2.1607399
1.70824 -0.45772099 2.1243899
1.78101 -0.47721899 2.10865
1.85343 -0.49662599 2.0929699
1.8527 -0.49643099 2.0567701
1.9248101 -0.515751 2.04125
1.99658 -0.53498203 2.02581
1.99589 -0.534796 1.98974
1.9952 -0.53461099 1.95366
1.92197 -0.51499099 1.89657
1.92126 -0.51480001 1.86036
1.92055 -0.51460999 1.8241301
1.91984 -0.51441902 1.7878799
1.61537 -0.43283701 1.22356
1.61458 -0.43262401 1.1866699
1.53897 -0.412366 1.12637
1.61298 -0.43219799 1.11282
1.61219 -0.43198401 1.07587
1.61139 -0.43177101 1.0389
1.61059 -0.431557 1.00191
1.6098 -0.431344 0.96490997
1.609 -0.43112999 0.92788798
1.6082 -0.43091601 0.89084703
1.6073999 -0.430702 0.85378897
1.6066 -0.43048799 0.81671202
1.6058 -0.430273 0.77961802
1.605 -0.43005899 0.74250603
1.6042 -0.42984501 0.70537502
1.6034 -0.42963001 0.66822702
1.6773 -0.449431 0.65576297
1.67652 -0.449222 0.61868203
1.67574 -0.44901201 0.58158302
1.67496 -0.44880301 0.54446602
1.67417 -0.44859299 0.50733101
1.7478 -0.468321 0.49526799
1.74703 -0.468117 0.45820099
1.7462699 -0.46791199 0.42111501
1.74551 -0.46770701 0.38401201
1.74474 -0.46750301 0.34689
1.7439801 -0.467298 0.30974999
1.74321 -0.46709299 0.27259299
1.74245 -0.46688801 0.23541699
1.81586 -0.486559 0.22401001
1.12437 -0.28033701 11.1493
1.12349 -0.28011701 11.1162
1.12261 -0.27989799 11.0832
1.1946501 -0.29786 11.0475
1.2663701 -0.315741 11.012
1.33776 -0.33354101 10.9767
1.33693 -0.33333501 10.9438
1.40802 -0.35105899 10.9088
1.6899101 -0.421343 10.8025
1.82927 -0.45608899 10.7664
1.82857 -0.45591399 10.7339
1.82787 -0.45573899 10.7015
1.89675 -0.47291401 10.6675
1.89607 -0.472743 10.6351
1.89538 -0.472572 10.6027
1.96266 -0.489346 10.5043
1.96199 -0.48917899 10.4719
1.96132 -0.489012 10.4396
1.96065 -0.48884499 10.4072
1.95998 -0.488677 10.3747
2.02052 -0.50377297 9.9521599
1.95056 -0.48633 9.9193296
1.94989 -0.48616099 9.8866901
1.94921 -0.485993 9.8540297
1.94854 -0.485825 9.8213701
1.94786 -0.48565599 9.7886801
1.94718 -0.485488 9.7559795
1.94651 -0.48531899 9.7232704
1.94583 -0.48515001 9.6905403
1.94515 -0.484981 9.6577902
1.9444799 -0.484813 9.6250401
1.9438 -0.484644 9.5922604
1.94312 -0.48447499 9.5594702
1.94244 -0.48430601 9.5266705
1.9417599 -0.48413599 9.4938498
1.94109 -0.48396701 9.4610205
1.94041 -0.483798 9.4281702
1.93973 -0.483628 9.3952999
1.8691 -0.466019 9.3607597
1.8684 -0.46584499 9.3277798
1.86771 -0.465671 9.2947903
1.93701 -0.48295 9.2636995
1.9363199 -0.48278001 9.2307596
1.93564 -0.48260999 9.1978102
1.93496 -0.48243999 9.1648397
1.93428 -0.48227 9.1318502
1.9335999 -0.48210001 9.0988598
1.93291 -0.48192999 9.0658398
1.93223 -0.48176 9.0328102
1.93155 -0.48158899 8.9997702
1.9308701 -0.481419 8.9667101
1.93018 -0.48124799 8.93363
1.8593 -0.46357599 8.8977203
1.8586 -0.46340099 8.8645401
1.26697 -0.31589201 8.1601105
1.33961 -0.33400199 8.1307602
1.26525 -0.31546301 8.0916901
1.26439 -0.315249 8.0574503
1.26353 -0.315034 8.0232
1.26267 -0.31481901 7.9889302
1.2618099 -0.314605 7.9546499
1.26095 -0.31439 7.9203501
1.26009 -0.31417501 7.8860402
1.25922 -0.31395999 7.8517098
1.3320301 -0.33211201 7.82301
1.33118 -0.33190101 7.7887301
1.33034 -0.331691 7.7544398
1.3294899 -0.33148 7.72014
1.40202 -0.349563 7.6917901
1.40119 -0.34935701 7.6575398
1.40037 -0.34915099 7.62327
1.3995399 -0.34894499 7.5889902
1.39871 -0.34873801 7.5546899
1.39789 -0.34853199 7.52037
1.47017 -0.36655501 7.4925199
1.46936 -0.36635301 7.4582601
1.54133 -0.384298 7.4306002
1.54054 -0.384101 7.3964
1.6122 -0.401968 7.3689499
1.61143 -0.401775 7.3347998
1.61066 -0.401582 7.3006401
1.68203 -0.41937599 7.2734499
1.68127 -0.41918799 7.2393498
1.6805201 -0.419 7.2052202
1.67976 -0.41881099 7.1710801
1.679 -0.418623 7.13693
1.67825 -0.41843399 7.1027598
1.67749 -0.41824499 7.0685802
1.67673 -0.41805699 7.0343699
1.67598 -0.41786799 7.0001602
1.67522 -0.41767901 6.96592
1.74643 -0.435433 6.9395099
1.74569 -0.43524799 6.9053302
1.7449501 -0.43506399 6.87114
1.7442 -0.434879 6.8369298
1.7434601 -0.43469399 6.8027
1.74272 -0.43450901 6.7684598
1.74198 -0.43432501 6.7342
1.74124 -0.43414 6.6999302
1.7405 -0.433954 6.6656399
1.6676199 -0.415784 6.6227002
1.72782 -0.43079501 6.0802598
1.6546201 -0.412543 6.0355201
1.65385 -0.412352 6.0008302
1.65308 -0.41216001 5.9661298
1.65231 -0.41196799 5.9314098
1.6515501 -0.41177699 5.8966699
1.65078 -0.411585 5.8619199
1.65001 -0.41139299 5.8271499
1.64924 -0.411201 5.7923698
1.6477 -0.410817 5.7227502
1.64692 -0.410624 5.6879201
1.64615 -0.41043201 5.65307
1.64538 -0.41023901 5.6181998
1.56598 -0.390443 5.3266201
1.56519 -0.39024499 5.2915201
1.5643899 -0.39004701 5.2563901
1.4899499 -0.37148699 5.2088599
1.48914 -0.37128401 5.1736102
1.48832 -0.37108001 5.13834
1.56121 -0.38925299 5.1157298
1.56041 -0.38905501 5.0805202
1.55962 -0.38885599 5.04529
1.55882 -0.388657 5.0100498
1.55802 -0.38845801 4.9747901
1.55722 -0.38825899 4.9395199
1.55642 -0.38806 4.9042301
1.55562 -0.38786101 4.8689198
1.5548199 -0.38766101 4.83359
1.62752 -0.405788 4.8116999
1.62674 -0.40559301 4.7764401
1.62596 -0.40539801 4.7411499
1.69836 -0.42344999 4.7195201
1.77043 -0.44141701 4.6979799
1.76968 -0.441232 4.6628299
1.8414299 -0.45912099 4.64147
1.84071 -0.45894 4.60639
1.91215 -0.476751 4.5851998
1.98325 -0.49448001 4.5641098
2.0540299 -0.512128 4.5431199
2.05336 -0.51196003 4.5082502
2.05269 -0.51179302 4.4733601
2.0520201 -0.51162601 4.4384499
2.0513501 -0.51145798 4.4035301
2.0506699 -0.51129103 4.3685899
2.05 -0.511123 4.3336301
2.04933 -0.51095498 4.2986598
1.83125 -0.456581 4.1487799
1.83052 -0.45639899 4.1134601
1.82979 -0.45621699 4.0781202
1.82906 -0.45603499 4.0427699
1.82832 -0.455852 4.0074
1.82759 -0.45567 3.9720199
1.82686 -0.45548701 3.93662
1.82613 -0.45530501 3.9012001
1.89794 -0.47320899 3.8815501
1.89722 -0.47303101 3.84619
1.89651 -0.47285199 3.8108201
1.89579 -0.47267401 3.77543
1.89508 -0.472496 3.74002
1.8943599 -0.47231799 3.7046001
1.96593 -0.490161 3.68543
1.96523 -0.489988 3.65007
1.96454 -0.48981401 3.6146901
1.96384 -0.48964 3.5792899
1.96314 -0.48946601 3.54388
1.8900599 -0.471246 3.4916999
1.66758 -0.41577399 3.2975299
1.59282 -0.39713401 3.24405
1.59202 -0.39693499 3.20804
1.6652499 -0.41519201 3.18978
1.66447 -0.41499799 3.1538301
1.66369 -0.41480401 3.1178701
1.66291 -0.41461 3.0818801
1.66213 -0.41441599 3.0458801
1.73509 -0.43260601 3.0280299
1.8077101 -0.450712 3.0102601
1.80696 -0.45052701 2.9744
1.8062201 -0.450342 2.93853
1.80548 -0.45015699 2.9026401
1.80474 -0.449972 2.86673
1.804 -0.44978699 2.8308001
1.80325 -0.44960099 2.7948599
1.80251 -0.44941601 2.7588899
1.80177 -0.44922999 2.7229199
1.80102 -0.449045 2.6869199
1.80028 -0.44885901 2.6509099
1.72594 -0.430325 2.5956299
1.72517 -0.430134 2.55949
1.7244101 -0.429943 2.52333
1.72364 -0.42975301 2.48715
1.72288 -0.429562 2.4509499
1.72211 -0.42936999 2.4147301
1.7213399 -0.42917901 2.3785
1.72058 -0.42898801 2.3422501
1.64568 -0.41031301 2.28585
1.64489 -0.410117 2.24947
1.6441 -0.40992001 2.2130599
1.64331 -0.409724 2.17665
1.71674 -0.42803001 2.1607399
1.7898099 -0.446251 2.1449201
1.78906 -0.446064 2.10865
1.86182 -0.464203 2.0929699
1.8610899 -0.464021 2.0567701
1.93352 -0.48208001 2.04125
1.9328099 -0.48190299 2.00511
1.93209 -0.48172501 1.96894
1.93138 -0.481547 1.93277
1.93067 -0.48136899 1.89657
1.92995 -0.48119101 1.86036
1.92924 -0.481013 1.8241301
1.92852 -0.48083499 1.7878799
1.62348 -0.404778 1.26044
1.6226799 -0.40457901 1.22356
1.6218801 -0.40437999 1.1866699
1.54593 -0.385445 1.12637
1.62028 -0.403981 1.11282
1.5442899 -0.38503599 1.0522799
1.54347 -0.38483101 1.01521
1.54265 -0.384626 0.978118
1.5418299 -0.38442099 0.94101
1.61628 -0.40298301 0.92788798
1.6154799 -0.40278301 0.89084703
1.61467 -0.402583 0.85378897
1.61387 -0.402383 0.81671202
1.61307 -0.402183 0.77961802
1.68724 -0.42067599 0.76689798
1.68646 -0.420481 0.72987098
1.68567 -0.42028499 0.69282597
1.68489 -0.42008999 0.65576297
1.6841 -0.41989401 0.61868203
1.68332 -0.419698 0.58158302
1.68253 -0.419503 0.54446602
1.6817501 -0.41930699 0.50733101
1.6809601 -0.41911101 0.47017801
1.75494 -0.43755499 0.45820099
1.7541699 -0.43736401 0.42111501
1.7534 -0.43717301 0.38401201
1.75264 -0.43698099 0.34689
1.75187 -0.43678999 0.30974999
1.7510999 -0.436598 0.27259299
1.8248301 -0.45497999 0.26109999
1.82408 -0.45479301 0.22401001
1.69701 -0.391785 10.8025
1.90609 -0.44005701 10.7322
1.97493 -0.455948 10.6983
1.97426 -0.45579299 10.666
1.97358 -0.45563799 10.6337
1.97291 -0.45548299 10.6014
1.97224 -0.45532799 10.569
1.97157 -0.45517299 10.5367
2.02967 -0.468586 9.9846897
2.0290101 -0.46843299 9.9521599
2.0283501 -0.468281 9.91961
2.0276899 -0.46812901 9.8870497
2.02703 -0.467976 9.8544798
2.02637 -0.46782401 9.8218899
2.0257101 -0.46767101 9.7892904
1.95468 -0.45127401 9.7232704
1.954 -0.45111701 9.6905403
1.95332 -0.45096001 9.6577902
1.9526401 -0.45080301 9.6250401
1.95196 -0.45064601 9.5922604
1.95128 -0.45048901 9.5594702
1.9506 -0.450331 9.5266705
1.9499201 -0.450174 9.4938498
1.94924 -0.45001701 9.4610205
1.94855 -0.44985899 9.4281702
1.94787 -0.44970199 9.3952999
1.87695 -0.433328 9.3607597
1.87625 -0.433166 9.3277798
1.87555 -0.43300399 9.2947903
1.94514 -0.44907099 9.2636995
1.94446 -0.44891301 9.2307596
1.9437701 -0.448755 9.1978102
1.94309 -0.44859701 9.1648397
1.9424 -0.448439 9.1318502
1.94172 -0.44828099 9.0988598
1.94103 -0.44812199 9.0658398
1.9403501 -0.44796401 9.0328102
1.93966 -0.447806 8.9997702
1.93897 -0.44764701 8.9667101
1.93829 -0.44748899 8.93363
1.86711 -0.43105599 8.8977203
1.8664 -0.430893 8.8645401
1.27057 -0.29333401 8.0916901
1.2697001 -0.293134 8.0574503
1.26884 -0.292934 8.0232
1.26797 -0.29273501 7.9889302
1.26711 -0.29253501 7.9546499
1.26624 -0.292335 7.9203501
1.26538 -0.292135 7.8860402
1.26451 -0.291935 7.8517098
1.33762 -0.30881399 7.82301
1.3367701 -0.30861899 7.7887301
1.33593 -0.30842301 7.7544398
1.33508 -0.308227 7.72014
1.40791 -0.325041 7.6917901
1.4070801 -0.32484999 7.6575398
1.40625 -0.32465801 7.62327
1.4054199 -0.32446599 7.5889902
1.47797 -0.341216 7.5609899
1.47716 -0.34102899 7.5267601
1.4763499 -0.340841 7.4925199
1.47553 -0.340653 7.4582601
1.47472 -0.34046599 7.4239802
1.5470099 -0.35715601 7.3964
1.61897 -0.37377 7.3689499
1.6181999 -0.37358999 7.3347998
1.61742 -0.373411 7.3006401
1.68909 -0.38995701 7.2734499
1.6883301 -0.38978201 7.2393498
1.68757 -0.38960701 7.2052202
1.68681 -0.38943201 7.1710801
1.6860501 -0.389256 7.13693
1.68529 -0.389081 7.1027598
1.68453 -0.388906 7.0685802
1.75599 -0.40540099 7.0419402
1.75524 -0.40522999 7.0078201
1.7545 -0.40505901 6.97367
1.75376 -0.40488699 6.9395099
1.75302 -0.40471601 6.9053302
1.75227 -0.404544 6.87114
1.7515301 -0.40437201 6.8369298
1.75078 -0.40419999 6.8027
1.82204 -0.42065001 6.7767
1.82131 -0.42048299 6.7425299
1.82058 -0.420315 6.7083402
1.7478 -0.40351301 6.6656399
1.7470599 -0.40334001 6.63133
1.74631 -0.40316799 6.5970101
1.81767 -0.41964301 6.5714402
1.65925 -0.38306901 5.9314098
1.65848 -0.38288999 5.8966699
1.65771 -0.38271201 5.8619199
1.65694 -0.382534 5.8271499
1.65616 -0.382355 5.7923698
1.65539 -0.38217601 5.7575698
1.65461 -0.381998 5.7227502
1.6538399 -0.38181901 5.6879201
1.65306 -0.38163999 5.65307
1.65229 -0.38146099 5.6181998
1.65151 -0.381282 5.5833201
1.65074 -0.38110301 5.54842
1.64996 -0.38092399 5.5135002
1.6491899 -0.38074401 5.47857
1.64841 -0.38056499 5.4436202
1.57415 -0.36342201 5.39679
1.57336 -0.36323801 5.3617201
1.57256 -0.36305401 5.3266201
1.49457 -0.34504899 5.13834
1.56776 -0.361947 5.1157298
1.4929301 -0.34467101 5.06775
1.49211 -0.34448099 5.0324402
1.56536 -0.361393 5.0100498
1.5645601 -0.36120799 4.9747901
1.56376 -0.361022 4.9395199
1.56296 -0.36083701 4.9042301
1.56216 -0.360652 4.8689198
1.56135 -0.36046699 4.83359
1.56055 -0.36028099 4.7982502
1.63358 -0.377141 4.7764401
1.63279 -0.376959 4.7411499
1.7055 -0.39374501 4.7195201
1.70473 -0.39356801 4.6842999
1.77712 -0.41027999 4.6628299
1.84917 -0.42691401 4.64147
1.8484401 -0.42674601 4.60639
1.9201699 -0.44330701 4.5851998
1.99158 -0.45979199 4.5641098
1.99089 -0.45963299 4.52916
2.06198 -0.476046 4.5082502
2.0613101 -0.47589099 4.4733601
2.0606301 -0.47573501 4.4384499
2.0599599 -0.47557899 4.4035301
2.0592899 -0.47542301 4.3685899
2.05861 -0.47526801 4.3336301
2.05793 -0.47511199 4.2986598
2.05726 -0.47495601 4.26367
1.83894 -0.42455199 4.1487799
1.8382 -0.42438301 4.1134601
1.8374701 -0.42421299 4.0781202
1.83674 -0.42404401 4.0427699
1.836 -0.42387399 4.0074
1.83527 -0.42370501 3.9720199
1.83453 -0.42353499 3.93662
1.8338 -0.423365 3.9012001
1.83306 -0.423195 3.8657701
1.90519 -0.43984699 3.84619
1.90447 -0.43968201 3.8108201
1.9037499 -0.43951601 3.77543
1.9030401 -0.43935001 3.74002
1.90232 -0.43918401 3.7046001
1.97419 -0.45577699 3.68543
1.97349 -0.45561501 3.65007
1.97278 -0.45545301 3.6146901
1.8994401 -0.43852001 3.5627301
1.97138 -0.45513001 3.54388
1.898 -0.43818799 3.4916999
1.67458 -0.38660699 3.2975299
1.6738 -0.38642699 3.2616301
1.5987099 -0.36908999 3.20804
1.5979 -0.36890501 3.1720099
1.67146 -0.38588601 3.1538301
1.67067 -0.38570601 3.1178701
1.66989 -0.38552499 3.0818801
1.6691099 -0.385344 3.0458801
1.66833 -0.38516399 3.00986
1.7416101 -0.40208301 2.99209
1.81455 -0.41892201 2.9744
1.81381 -0.41874999 2.93853
1.81306 -0.418578 2.9026401
1.81232 -0.41840601 2.86673
1.81157 -0.41823399 2.8308001
1.81082 -0.418062 2.7948599
1.8100801 -0.417889 2.7588899
1.80933 -0.41771701 2.7229199
1.80858 -0.41754401 2.6869199
1.80784 -0.41737199 2.6509099
1.7331899 -0.40013799 2.5956299
1.73165 -0.39978299 2.52333
1.73088 -0.39960501 2.48715
1.73011 -0.39942801 2.4509499
1.72934 -0.39925 2.4147301
1.65417 -0.38189501 2.3585601
1.65338 -0.38171199 2.3222201
1.65259 -0.38152999 2.28585
1.6518 -0.381347 2.24947
1.651 -0.38116401 2.2130599
1.65021 -0.38098201 2.17665
1.72394 -0.398004 2.1607399
1.72317 -0.39782599 2.1243899
1.79658 -0.414772 2.10865
1.86964 -0.43163899 2.0929699
1.94235 -0.44842699 2.0773799
1.94164 -0.44826201 2.04125
1.94092 -0.44809699 2.00511
1.94021 -0.447932 1.96894
1.93949 -0.44776601 1.93277
1.9387701 -0.44760099 1.89657
1.93806 -0.447436 1.86036
1.93734 -0.44727001 1.8241301
1.93662 -0.44710401 1.7878799
1.9359 -0.44693899 1.75161
1.93519 -0.44677299 1.71533
1.9344701 -0.44660699 1.6790299
1.86006 -0.42942899 1.6209199
1.78372 -0.41180399 1.48935
1.7829601 -0.41162801 1.45276
1.7822 -0.41145301 1.41615
1.7068599 -0.39405999 1.3569
1.70608 -0.39388001 1.32016
1.63029 -0.37638301 1.26044
1.62949 -0.37619799 1.22356
1.55325 -0.358596 1.16339
1.55243 -0.35840601 1.12637
1.5516 -0.358215 1.08933
1.5507801 -0.35802501 1.0522799
1.54995 -0.35783499 1.01521
1.54913 -0.357645 0.978118
1.5483 -0.357454 0.94101
1.54748 -0.35726401 0.90388501
1.62226 -0.37452799 0.89084703
1.6214499 -0.37434199 0.85378897
1.6206501 -0.374156 0.81671202
1.61984 -0.37397 0.77961802
1.61903 -0.37378299 0.74250603
1.69354 -0.390984 0.72987098
1.69275 -0.390802 0.69282597
1.69196 -0.39061999 0.65576297
1.69117 -0.39043799 0.61868203
1.69039 -0.39025599 0.58158302
1.6896 -0.39007401 0.54446602
1.68881 -0.38989201 0.50733101
1.68802 -0.38971001 0.47017801
1.76231 -0.40686101 0.45820099
1.7615401 -0.406683 0.42111501
1.76077 -0.40650499 0.38401201
1.76 -0.40632701 0.34689
1.75923 -0.406149 0.30974999
1.75845 -0.40597099 0.27259299
1.83249 -0.42306301 0.26109999
1.83174 -0.42289001 0.22401001
1.27662 -0.27135301 11.012
1.70359 -0.36210901 10.8025
1.84408 -0.39197099 10.7664
1.84337 -0.39182001 10.7339
1.98191 -0.42126799 10.666
1.98124 -0.42112499 10.6337
1.9805599 -0.420982 10.6014
1.97989 -0.420838 10.569
2.0487499 -0.43547499 10.5355
2.03687 -0.432951 9.9521599
2.0362101 -0.43281001 9.91961
2.0355501 -0.43266901 9.8870497
2.0348899 -0.43252799 9.8544798
2.03422 -0.43238699 9.8218899
2.03356 -0.432246 9.7892904
1.9608999 -0.41680101 9.6577902
1.96021 -0.41665599 9.6250401
1.95953 -0.416511 9.5922604
1.95885 -0.41636601 9.5594702
1.88704 -0.40110201 9.4925098
1.88633 -0.40095299 9.4596004
1.95611 -0.415784 9.4281702
1.88493 -0.40065399 9.3937197
1.88423 -0.40050501 9.3607597
1.9540499 -0.41534701 9.3295298
1.95337 -0.41520101 9.2966204
1.95268 -0.41505501 9.2636995
1.95199 -0.41490901 9.2307596
1.95131 -0.414763 9.1978102
1.9506201 -0.414617 9.1648397
1.94993 -0.414471 9.1318502
1.94924 -0.414325 9.0988598
1.94856 -0.41417801 9.0658398
1.94787 -0.41403201 9.0328102
1.94718 -0.41388601 8.9997702
1.94649 -0.413739 8.9667101
1.9457999 -0.41359299 8.93363
1.87435 -0.39840499 8.8977203
1.8736399 -0.39825499 8.8645401
1.87293 -0.39810401 8.8313303
1.87222 -0.397953 8.7981195
1.87151 -0.39780301 8.7648802
1.87081 -0.397652 8.7316303
1.8701 -0.39750099 8.69837
1.27549 -0.27111399 8.0916901
1.27463 -0.27092999 8.0574503
1.27376 -0.27074599 8.0232
1.27289 -0.27056101 7.9889302
1.27202 -0.270376 7.9546499
1.27115 -0.270192 7.9203501
1.27028 -0.27000701 7.8860402
1.26941 -0.269822 7.8517098
1.34281 -0.285422 7.82301
1.34196 -0.28524199 7.7887301
1.34111 -0.285061 7.7544398
1.34025 -0.28488001 7.72014
1.41337 -0.30041999 7.6917901
1.4125299 -0.30024299 7.6575398
1.4117 -0.30006599 7.62327
1.41087 -0.299889 7.5889902
1.4837 -0.31536999 7.5609899
1.48288 -0.31519699 7.5267601
1.48207 -0.31502301 7.4925199
1.48125 -0.31485 7.4582601
1.55381 -0.33027199 7.4306002
1.55301 -0.330102 7.3964
1.55221 -0.32993299 7.3621802
1.62447 -0.345292 7.3347998
1.62369 -0.345126 7.3006401
1.69564 -0.36041901 7.2734499
1.69488 -0.360257 7.2393498
1.69412 -0.36009499 7.2052202
1.69335 -0.35993299 7.1710801
1.69259 -0.35977101 7.13693
1.69183 -0.35960901 7.1027598
1.69107 -0.359447 7.0685802
1.6903 -0.359285 7.0343699
1.76205 -0.37453499 7.0078201
1.7613 -0.37437701 6.97367
1.76056 -0.37421799 6.9395099
1.75981 -0.37406 6.9053302
1.75907 -0.37390101 6.87114
1.75832 -0.37374201 6.8369298
1.75757 -0.37358299 6.8027
1.75682 -0.37342501 6.7684598
1.75608 -0.37326601 6.7342
1.75533 -0.37310699 6.6999302
1.75458 -0.37294799 6.6656399
1.75383 -0.372789 6.63133
1.75308 -0.37262899 6.5970101
1.7523299 -0.37246999 6.5626798
1.75158 -0.372311 6.5283198
1.7508301 -0.37215099 6.4939499
1.67033 -0.355039 6.1394801
1.66956 -0.354875 6.1048398
1.66878 -0.354711 6.07019
1.66801 -0.35454601 6.0355201
1.66724 -0.35438201 6.0008302
1.66491 -0.35388801 5.8966699
1.66413 -0.35372299 5.8619199
1.66336 -0.353558 5.8271499
1.66258 -0.35339299 5.7923698
1.66181 -0.353228 5.7575698
1.6610301 -0.35306299 5.7227502
1.6602499 -0.35289699 5.6879201
1.65947 -0.352732 5.65307
1.6587 -0.35256699 5.6181998
1.65792 -0.35240099 5.5833201
1.65714 -0.352236 5.54842
1.65636 -0.35207 5.5135002
1.65558 -0.351904 5.47857
1.6548001 -0.35173801 5.4436202
1.65402 -0.35157201 5.4086499
1.57946 -0.335724 5.3617201
1.57865 -0.33555299 5.3266201
1.57785 -0.335383 5.2915201
1.57705 -0.33521301 5.2563901
1.57625 -0.335042 5.2212501
1.5754499 -0.33487201 5.18609
1.57465 -0.334701 5.1509199
1.49954 -0.31873801 5.1030598
1.57304 -0.33436 5.0805202
1.4979 -0.31838799 5.0324402
1.49707 -0.31821299 4.9970999
1.57063 -0.33384699 4.9747901
1.56982 -0.33367601 4.9395199
1.56902 -0.333505 4.9042301
1.56821 -0.333334 4.8689198
1.56741 -0.33316201 4.83359
1.5666 -0.332991 4.7982502
1.5657901 -0.33282 4.7628899
1.63912 -0.34840599 4.7411499
1.71211 -0.36392 4.7195201
1.71134 -0.363756 4.6842999
1.7840101 -0.37920201 4.6628299
1.8563401 -0.39457601 4.64147
1.8556 -0.39442101 4.60639
1.85487 -0.394265 4.57129
1.92691 -0.409576 4.55018
1.99861 -0.424817 4.52916
2.0699799 -0.439987 4.5082502
2.0692999 -0.439843 4.4733601
2.06862 -0.43970001 4.4384499
2.06795 -0.439556 4.4035301
2.06727 -0.439412 4.3685899
2.0665901 -0.43926799 4.3336301
2.0659101 -0.439123 4.2986598
2.0652299 -0.438979 4.26367
2.0645599 -0.438835 4.2286701
1.8460701 -0.39239299 4.1487799
1.84533 -0.39223701 4.1134601
1.8445899 -0.39208001 4.0781202
1.84386 -0.39192399 4.0427699
1.84312 -0.391767 4.0074
1.84238 -0.39161 3.9720199
1.84164 -0.391453 3.93662
1.84091 -0.39129701 3.9012001
1.84017 -0.39114001 3.8657701
1.91257 -0.40652999 3.84619
1.91185 -0.40637699 3.8108201
1.91113 -0.40622401 3.77543
1.91041 -0.40607101 3.74002
1.90969 -0.405918 3.7046001
1.90897 -0.40576401 3.6691599
1.98114 -0.42110401 3.65007
1.90753 -0.40545699 3.5982299
1.97973 -0.42080501 3.5792899
1.97903 -0.42065501 3.54388
1.60651 -0.341474 3.28005
1.60571 -0.341304 3.24405
1.6049 -0.341133 3.20804
1.67872 -0.356823 3.18978
1.67794 -0.356657 3.1538301
1.67715 -0.35648999 3.1178701
1.67637 -0.356323 3.0818801
1.67558 -0.35615599 3.0458801
1.74913 -0.37178901 3.0280299
1.74836 -0.37162599 2.99209
1.8215899 -0.38719001 2.9744
1.82084 -0.38703099 2.93853
1.8200901 -0.38687199 2.9026401
1.81934 -0.386713 2.86673
1.81859 -0.386554 2.8308001
1.81784 -0.38639501 2.7948599
1.8171 -0.38623601 2.7588899
1.81635 -0.386076 2.7229199
1.8156 -0.38591701 2.6869199
1.81484 -0.385757 2.6509099
1.81409 -0.38559699 2.6148801
1.73913 -0.36966401 2.55949
1.73682 -0.36917201 2.4509499
1.73605 -0.369008 2.4147301
1.66058 -0.35296699 2.3585601
1.65979 -0.352799 2.3222201
1.65899 -0.35262999 2.28585
1.6582 -0.35246101 2.24947
1.65741 -0.352292 2.2130599
1.65661 -0.35212299 2.17665
1.73063 -0.367856 2.1607399
1.7298501 -0.36769199 2.1243899
1.80354 -0.38335499 2.10865
1.87688 -0.39894399 2.0929699
1.94988 -0.41446 2.0773799
1.94916 -0.41430801 2.04125
1.94845 -0.41415501 2.00511
1.9477299 -0.414002 1.96894
1.94701 -0.413849 1.93277
1.94629 -0.413697 1.89657
1.94557 -0.413544 1.86036
1.94485 -0.41339099 1.8241301
1.87024 -0.397531 1.76648
1.8695 -0.397374 1.73011
1.86876 -0.39721599 1.69373
1.8680201 -0.39705899 1.65733
1.71505 -0.364544 1.43033
1.71426 -0.36437801 1.39362
1.71348 -0.36421099 1.3569
1.7127 -0.36404499 1.32016
1.63661 -0.347873 1.26044
1.63581 -0.347702 1.22356
1.55927 -0.331433 1.16339
1.55844 -0.33125699 1.12637
1.55762 -0.33108199 1.08933
1.55679 -0.330906 1.0522799
1.5559601 -0.33072999 1.01521
1.55514 -0.33055401 0.978118
1.55431 -0.330378 0.94101
1.55348 -0.33020201 0.90388501
1.6285501 -0.34615901 0.89084703
1.62774 -0.34598699 0.85378897
1.62693 -0.345815 0.81671202
1.62612 -0.34564301 0.77961802
1.6253099 -0.34547001 0.74250603
1.7000999 -0.361368 0.72987098
1.6993099 -0.3612 0.69282597
1.6985199 -0.36103201 0.65576297
1.6977299 -0.36086401 0.61868203
1.6969399 -0.36069599 0.58158302
1.6961499 -0.36052701 0.54446602
1.6953599 -0.36035901 0.50733101
1.6945601 -0.36019099 0.47017801
1.76914 -0.37604201 0.45820099
1.76837 -0.37587801 0.42111501
1.76759 -0.375714 0.38401201
1.76682 -0.37554899 0.34689
1.76605 -0.37538499 0.30974999
1.76527 -0.37522 0.27259299
1.7645 -0.37505499 0.23541699
1.49845 -0.29126999 10.9721
1.49765 -0.291114 10.9393
1.49685 -0.290959 10.9066
1.63904 -0.31859601 10.8371
1.8513499 -0.35986501 10.7988
1.8506401 -0.359727 10.7664
1.92029 -0.37326699 10.7322
1.9196 -0.37313199 10.6999
1.98896 -0.38661501 10.666
2.0580101 -0.40003699 10.6322
2.0573499 -0.39990899 10.6
2.0567 -0.39978099 10.5677
2.05604 -0.39965299 10.5355
2.0553801 -0.39952499 10.5032
2.0547199 -0.39939699 10.4709
2.0441201 -0.39733699 9.9521599
2.0434599 -0.39720699 9.91961
2.0427899 -0.39707801 9.8870497
2.04212 -0.39694899 9.8544798
2.04146 -0.396819 9.8218899
2.0407901 -0.39669001 9.7892904
2.0401299 -0.39656001 9.75667
1.96924 -0.38278201 9.7232704
1.96856 -0.38264799 9.6905403
1.96787 -0.38251501 9.6577902
1.96719 -0.38238201 9.6250401
1.9665 -0.382249 9.5922604
1.9658099 -0.38211599 9.5594702
2.03545 -0.395652 9.5279198
1.96444 -0.38184899 9.4938498
1.96375 -0.381715 9.4610205
1.96307 -0.38158199 9.4281702
1.9623801 -0.381448 9.3952999
1.8909301 -0.36755899 9.3607597
1.89022 -0.36742201 9.3277798
1.88952 -0.36728501 9.2947903
1.95963 -0.38091299 9.2636995
1.95894 -0.380779 9.2307596
1.95825 -0.38064501 9.1978102
1.9575599 -0.38051099 9.1648397
1.95687 -0.38037699 9.1318502
1.95618 -0.380243 9.0988598
1.95549 -0.380108 9.0658398
1.9548 -0.37997401 9.0328102
1.95411 -0.37983999 8.9997702
1.95341 -0.37970501 8.9667101
1.95272 -0.37957099 8.93363
1.9520299 -0.37943599 8.9005404
1.95134 -0.379302 8.8674402
1.95065 -0.37916699 8.8343201
1.87888 -0.36521801 8.7981195
1.87817 -0.36508 8.7648802
1.87746 -0.364941 8.7316303
1.87675 -0.36480299 8.69837
1.87604 -0.36466399 8.6650896
1.27916 -0.248643 8.0574503
1.27829 -0.248474 8.0232
1.27742 -0.24830499 7.9889302
1.2765501 -0.248135 7.9546499
1.2756701 -0.24796601 7.9203501
1.2747999 -0.247796 7.8860402
1.3484401 -0.26210999 7.8572698
1.34758 -0.261944 7.82301
1.34673 -0.261778 7.7887301
1.34588 -0.261612 7.7544398
1.41923 -0.27587 7.7260199
1.41839 -0.27570799 7.6917901
1.41756 -0.275545 7.6575398
1.41672 -0.275383 7.62327
1.41589 -0.27522001 7.5889902
1.4889801 -0.289428 7.5609899
1.48816 -0.289269 7.5267601
1.48734 -0.28911 7.4925199
1.4865201 -0.28895101 7.4582601
1.55933 -0.30310401 7.4306002
1.55853 -0.302948 7.3964
1.55773 -0.302793 7.3621802
1.5569299 -0.30263701 7.32795
1.62947 -0.31673601 7.3006401
1.62869 -0.31658399 7.2664599
1.70091 -0.330623 7.2393498
1.70014 -0.33047399 7.2052202
1.69938 -0.33032501 7.1710801
1.6986099 -0.33017701 7.13693
1.69785 -0.330028 7.1027598
1.69708 -0.32987899 7.0685802
1.6963201 -0.32973 7.0343699
1.76832 -0.34372601 7.0078201
1.76757 -0.34358099 6.97367
1.76682 -0.34343499 6.9395099
1.76607 -0.34329 6.9053302
1.7653199 -0.343144 6.87114
1.76457 -0.342998 6.8369298
1.7638201 -0.34285301 6.8027
1.83561 -0.35680601 6.7767
1.83488 -0.356664 6.7425299
1.8341399 -0.35652101 6.7083402
1.83341 -0.356379 6.67414
1.83268 -0.35623699 6.6399298
1.8319499 -0.356094 6.60569
1.75857 -0.341831 6.5626798
1.75781 -0.341685 6.5283198
1.7570601 -0.34153801 6.4939499
1.75631 -0.34139201 6.4595699
1.74951 -0.34007099 6.1493702
1.74876 -0.33992401 6.11482
1.748 -0.33977699 6.0802598
1.7472399 -0.33963001 6.04568
1.67317 -0.32523099 6.0008302
1.74345 -0.338893 5.87254
1.6692801 -0.32447401 5.8271499
1.6684999 -0.324323 5.7923698
1.66772 -0.32417101 5.7575698
1.66694 -0.32402 5.7227502
1.66616 -0.32386801 5.6879201
1.66538 -0.32371601 5.65307
1.6646 -0.32356501 5.6181998
1.66381 -0.32341301 5.5833201
1.66303 -0.32326099 5.54842
1.66225 -0.323109 5.5135002
1.6614701 -0.32295701 5.47857
1.6606899 -0.32280499 5.4436202
1.58588 -0.308263 5.39679
1.58507 -0.30810699 5.3617201
1.58427 -0.307951 5.3266201
1.58347 -0.30779499 5.2915201
1.58266 -0.30763799 5.2563901
1.65598 -0.32189 5.2335801
1.58105 -0.30732599 5.18609
1.5057 -0.29267901 5.13834
1.50488 -0.292519 5.1030598
1.57783 -0.30669901 5.04529
1.57702 -0.30654201 5.0100498
1.50157 -0.29187599 4.96175
1.57541 -0.30622801 4.9395199
1.5746 -0.30607101 4.9042301
1.57379 -0.30591401 4.8689198
1.57298 -0.30575699 4.83359
1.64653 -0.32005301 4.8116999
1.64574 -0.31990001 4.7764401
1.64495 -0.31974599 4.7411499
1.64416 -0.31959301 4.7058601
1.71743 -0.33383399 4.6842999
1.79035 -0.34800899 4.6628299
1.86294 -0.36211899 4.64147
1.86221 -0.361976 4.60639
1.86147 -0.36183301 4.57129
1.93376 -0.37588501 4.55018
2.0057199 -0.38987201 4.52916
2.0773399 -0.40379399 4.5082502
2.0766599 -0.403662 4.4733601
2.0759799 -0.40353 4.4384499
2.0753 -0.40339801 4.4035301
2.07462 -0.40326601 4.3685899
2.07394 -0.40313399 4.3336301
2.0732601 -0.40300101 4.2986598
2.0725801 -0.40286899 4.26367
2.0718999 -0.40273699 4.2286701
1.85263 -0.36011499 4.1487799
1.85189 -0.359972 4.1134601
1.85115 -0.359828 4.0781202
1.85042 -0.35968399 4.0427699
1.8496799 -0.359541 4.0074
1.84894 -0.35939699 3.9720199
1.8481899 -0.35925299 3.93662
1.84745 -0.35910901 3.9012001
1.84671 -0.35896501 3.8657701
1.9193799 -0.37308899 3.84619
1.91866 -0.372949 3.8108201
1.91793 -0.37280801 3.77543
1.91721 -0.372668 3.74002
1.91649 -0.372527 3.7046001
1.9888901 -0.386601 3.68543
1.98818 -0.386464 3.65007
1.98748 -0.386327 3.6146901
1.98677 -0.38618901 3.5792899
1.61303 -0.31354201 3.31603
1.6122299 -0.31338501 3.28005
1.61142 -0.31322801 3.24405
1.61061 -0.31307101 3.20804
1.60981 -0.312915 3.1720099
1.68391 -0.32731801 3.1538301
1.68312 -0.32716501 3.1178701
1.68233 -0.327012 3.0818801
1.68154 -0.326859 3.0458801
1.75535 -0.34120601 3.0280299
1.75458 -0.34105599 2.99209
1.75381 -0.34090701 2.95614
1.75304 -0.34075701 2.9201601
1.82657 -0.355048 2.9026401
1.82581 -0.354902 2.86673
1.82506 -0.354756 2.8308001
1.8243099 -0.35461 2.7948599
1.82356 -0.35446399 2.7588899
1.8228101 -0.35431799 2.7229199
1.82205 -0.35417101 2.6869199
1.74687 -0.33955699 2.6317599
1.7460999 -0.339407 2.5956299
1.74532 -0.33925599 2.55949
1.74455 -0.33910599 2.52333
1.74377 -0.33895499 2.48715
1.743 -0.33880401 2.4509499
1.66649 -0.32393199 2.3585601
1.6656899 -0.323778 2.3222201
1.6648999 -0.323623 2.28585
1.6641001 -0.323468 2.24947
1.6633 -0.323313 2.2130599
1.6625 -0.323158 2.17665
1.73678 -0.33759701 2.1607399
